# .PCD v0.7 - Point Cloud Data file format
VERSION 0.7
FIELDS x y z intensity
SIZE 4 4 4 4
TYPE F F F F
COUNT 1 1 1 1
WIDTH 1264
HEIGHT 1
VIEWPOINT 0 0 0 1 0 0 0
POINTS 1264
DATA ascii
1.1876855 -1.4073969 0.84395361 64.013336
1.3881502 -1.3717679 0.85902691 59.260868
1.5753248 -1.3415473 0.87724924 57.666668
1.7115448 -1.3320251 0.79333258 65.199997
1.6688523 -1.323686 0.88374645 57
1.7949398 -1.3129127 0.87590432 62.454544
1.9878628 -1.2826368 0.89616203 60.63158
2.1863585 -1.2531954 0.89017791 59
2.4006016 -1.2200207 0.89080524 59.259998
2.5819094 -1.1918522 0.88410598 60.377777
2.7431788 -1.1670092 0.87663311 61.933334
2.842685 -1.1494215 0.89926434 62.125
2.9964082 -1.1254771 0.91335469 61.703705
3.1948898 -1.0925198 0.89013398 64
3.4001522 -1.0654781 0.86757684 62.700001
3.5960636 -1.0361687 0.88244557 62.315788
3.7869837 -1.0036217 0.90082037 62.1875
3.8783755 -0.98411167 0.98478025 59.5
3.9929438 -0.97275662 0.86815566 63.57143
4.1881609 -0.94366157 0.88968784 63
4.400105 -0.9098568 0.91324192 62.142857
4.6214814 -0.87031114 0.87836564 63.200001
4.8149858 -0.84139466 0.88244104 64.400002
4.9383469 -0.8244189 0.89461374 62
5.025773 -0.80985165 0.87578219 62
5.2157145 -0.77922964 0.83752006 62.25
5.3975329 -0.74848926 0.85231203 61.75
5.6000404 -0.71609223 0.86889023 60.75
5.815239 -0.68091404 0.88657588 60.25
5.962625 -0.65751636 0.89873528 60
-5.1747723 -0.28684947 0.94424385 37
6.0523248 -0.63398802 0.90605468 62.666668
6.2331104 -0.61138523 0.9211027 62.5
6.4179049 -0.58557963 0.93649334 58.666668
6.6337056 -0.55085361 0.95446783 58
6.8258696 -0.52027953 0.97051513 57
6.9478226 -0.50154233 0.98072177 57
-3.7697124 -0.081752151 0.89397562 53.5
7.4618988 -0.41068372 0.78003079 54
7.858108 -0.35542157 0.79972219 52
8.0277367 -0.33024865 0.80816311 52
8.1308022 -0.31200659 0.81329077 51
8.2598324 -0.2930451 0.81972224 51
8.4392233 -0.26436329 0.82866836 50
8.6809168 -0.22377741 0.84073281 50
8.8361082 -0.19052848 0.84848088 49
9.2225819 -0.16841856 0.86784786 48
-1.7005563 0.23525038 0.95681834 50
-1.5660856 0.25944114 0.91015613 48.299999
-1.3661301 0.29556894 0.88027424 49.190475
-1.2201626 0.31369278 0.89718455 69.53846
-0.94275147 0.33122948 0.8321498 66.444443
9.5356588 -0.12092365 0.88352907 47
9.8644772 -0.068140239 0.90001786 46
10.080914 -0.024957642 0.91088468 45.5
-0.88591737 0.40872097 0.82740867 78.14286
-0.84070665 0.50183976 0.82163686 79.176468
-0.83464569 0.59768927 0.82813799 74.95652
2.8695352 0.95226407 0.87005484 62.25
3.0128608 0.96649671 0.89454293 63
3.5185189 1.0748386 0.92749131 42
3.6756794 1.1069438 0.91168588 43.333332
3.8745549 1.1385182 0.89172333 50.714287
3.9925106 1.1467553 0.86880708 61
4.5653806 1.2239929 0.93780953 65
-3.4854708 1.8084539 0.89029247 62.42857
-3.4470611 1.8258672 0.9742555 60.333332
-3.3246703 1.8427619 0.89127976 62.400002
-3.1145034 1.8804177 0.9392584 61
-2.916486 1.9159279 0.91912192 60.799999
-2.7171683 1.9468828 0.89904058 61
-2.505713 1.9750811 0.91488671 60.07143
-2.434701 2.0012276 0.87216783 57.666668
-2.3038502 2.0037255 0.92142087 59.833332
-2.1087422 2.0326121 0.90302676 60.111111
-1.9145477 2.0605469 0.88508546 60
-1.7364256 2.0628319 0.91703552 58.888889
8.3303003 1.880774 0.83526921 91
8.443799 1.8677702 0.84065759 99
25.722157 2.3607142 0.81947362 57
25.752777 2.443377 0.82014871 57
6.574667 3.6888652 0.78992575 15
6.7053251 3.7268016 0.79658121 13
7.6329207 3.9015431 0.84158814 13
7.6800537 3.8980217 0.84357381 11
7.8084297 3.9372461 0.85023576 10
9.2169361 4.1295605 0.91795498 10
9.3582783 4.161726 0.92510462 10
9.52705 4.1864076 0.93333769 10
-12.912369 -3.7972751 1.1912836 57
-12.911671 -3.4276042 1.1864465 66
-12.684433 -3.5015767 1.1753629 66
-13.485252 -3.2261705 1.2145087 19
-13.252686 -3.2620988 1.2025496 27.5
-13.026497 -3.27437 1.1906797 61
-12.955813 -3.3016865 1.1872519 63
-3.1873739 -3.2090762 1.0482854 90.666664
-3.2152853 -3.0883815 1.0413362 90.727272
-7.6607809 -2.8078432 1.2076551 53
-3.2441592 -2.8765013 1.0546826 93.384613
-6.4345541 -2.5827522 1.0976925 60.5
-6.2230873 -2.5493634 1.0789536 58.5
-3.2771697 -2.6928184 1.1038485 93.416664
-3.3073006 -2.4992146 1.0954487 94.695656
-13.510775 -1.9128476 1.204265 57
-3.7620611 -2.1798229 1.0360887 55
-3.3451488 -2.2505102 1.1605089 92
-3.3304408 -2.3468544 1.1664547 92
-13.842827 -1.754033 1.2212732 42.5
-13.640941 -1.8181595 1.2107155 20.5
-13.48739 -1.8645108 1.2026896 24
-3.6129913 -2.1358955 1.0908589 67.14286
-3.4104846 -2.1296983 1.1459885 75.916664
-1.6232674 -1.8444115 1.0033993 82
-1.5601792 -1.8196293 1.1340179 55.5
-1.4229076 -1.7992779 1.1169116 54.48148
-1.2196643 -1.7676182 1.0788437 54.741936
-1.0354345 -1.7397382 1.0594355 56.25
-0.81669444 -1.7069881 1.042225 56.950001
-0.64781862 -1.680279 1.0099726 56.133335
2.1990297 -1.2461646 1.006018 56.849998
2.3905406 -1.2144403 1.0413674 56.450001
2.6081326 -1.1762329 1.0521713 56.26923
2.7131212 -1.1598935 1.1054362 57
2.8043771 -1.1429867 1.0711086 55.888889
2.991714 -1.1133919 1.1138504 55.96154
3.2008567 -1.0841213 1.0660771 61.391304
3.4012861 -1.0548704 1.0837814 58.523811
3.5804598 -1.0263575 1.1072199 58.733334
3.7553284 -1.0019236 1.0901196 61.166668
3.8541679 -0.98325324 1.1069643 61.666668
3.9961817 -0.96227312 1.0664642 60.3125
4.1984482 -0.93032086 1.0986937 59.857143
4.3983068 -0.90087152 1.0590584 58.333332
4.5984526 -0.86361969 1.0879787 60.142857
4.827003 -0.83240736 1.1216769 57.599998
-5.4316812 -0.33179927 1.1785501 54
5.0386062 -0.80125809 1.1047183 57.42857
5.2011218 -0.77736282 1.0780299 57.714287
5.3866258 -0.74848986 1.0253693 59
5.5918698 -0.71671629 1.0491365 58
5.8078012 -0.6818434 1.0742234 58
5.9546819 -0.65848851 1.0913481 57
-5.1876063 -0.29495007 1.1478213 34
6.0143232 -0.64029479 1.0981802 57
6.1859903 -0.61670411 1.1183374 62.333332
6.4090466 -0.58679307 1.1446022 56.333332
6.6273904 -0.55250251 1.1703129 55.666668
7.0213671 -0.48541829 0.98684955 57
-13.780151 0.24276362 1.2135341 44.666668
7.2083368 -0.45938942 1.0025554 57
7.3998084 -0.41964349 1.018584 56
7.5443606 -0.39709309 1.0307488 62
7.8356743 -0.35683838 1.0553305 54.5
8.0573168 -0.32280231 1.0740467 54
-13.696703 0.35890046 1.2091697 51
-13.603522 0.4240391 1.2042112 15
-2.6897976 0.086317301 1.1865171 47
8.2394524 -0.29497778 1.0894452 53
8.4054909 -0.26586249 1.1034862 52.5
8.6575766 -0.22594786 1.1248425 53
8.7905045 -0.19216061 1.1360854 51
-13.077389 0.58650827 1.1758829 24
-12.853352 0.53450811 1.1635087 32
-1.711832 0.23672855 1.0428203 50
-1.6253903 0.25131565 1.0197634 46
11.41784 0.18571655 0.97815204 41
11.635243 0.22261432 0.98911542 41
12.400412 0.34814304 1.0277357 44
12.527794 0.44686991 1.0343524 61
12.564723 0.54307598 1.0364568 60
2.8722689 0.94794154 1.0588299 55.42857
3.0027835 0.96694052 1.067613 56.333332
3.2700067 1.0221947 1.0972848 40
12.579089 0.5857451 1.0373034 58
3.3305488 1.0316645 1.1111069 40
3.4523349 1.0580668 1.101516 41.666668
3.5812407 1.0933435 1.0530912 42
3.8631854 1.1297475 1.1068825 53.25
3.975631 1.1354064 0.99849725 58
-3.4805694 1.8564464 1.1396046 50.333332
-3.3107626 1.8477651 1.1140863 55.833332
-3.1255372 1.869207 1.0885626 57.222221
-2.9190361 1.8994577 1.0610293 58
-2.7118545 1.9312416 1.0341296 58.090908
-2.5232985 1.9720244 1.0662768 57.42857
-2.7194569 2.0421858 1.1803489 45.25
-2.490031 2.0025837 1.1377608 54
-2.3065791 2.0021853 1.1073565 59.545456
-2.112344 2.027905 1.0788426 60
-1.8980663 2.0693495 1.0864803 54.545456
-1.7353787 2.0708423 1.0803933 55.944443
8.3696928 1.8736587 1.1189629 71
8.3369188 1.8919804 1.1166129 86
12.251765 2.2915606 1.0326182 64.599998
12.207772 2.3987646 1.0316046 66
6.7566819 3.7806573 1.0538651 13.5
7.7536826 3.933409 1.1344569 10
11.003674 4.4040999 1.0058502 10
12.047236 4.5364442 1.057049 50
-9.427846 -3.0520177 1.3647282 61
-8.2679405 -2.8687894 1.2608861 60
-3.2259777 -3.0727777 1.2892004 87.833336
-7.7583618 -2.7826047 1.2152166 62
-3.2518113 -2.8979821 1.3018652 90.650002
-6.5885048 -2.6275444 1.3812029 59
-6.4024258 -2.5805509 1.3574371 55
-6.2065501 -2.5528703 1.3333874 57
-3.2831626 -2.6928387 1.3611321 94.5
-3.3122842 -2.4857955 1.3428755 95.46154
-3.3469365 -2.2561557 1.3247093 96
-3.3344486 -2.3507378 1.3322226 96
-14.000678 -1.6999578 1.2295253 47
-3.7383537 -2.1605308 1.2085757 51
-3.6260953 -2.1337836 1.360707 64
-3.3894696 -2.1300969 1.3196204 82
-1.5847442 -1.819311 1.2049937 57
3.2021623 -1.078488 1.2114104 58.5
3.4047904 -1.0501106 1.2580078 55.599998
3.6156359 -1.012719 1.2715837 55.07143
3.7363992 -0.99233401 1.2723912 54.5
3.837709 -0.97706151 1.30085 54.545456
3.979588 -0.95275462 1.2861093 53.700001
4.1985564 -0.92055571 1.3056452 53
4.3988028 -0.89369702 1.2697039 56.307693
4.5816965 -0.86202073 1.2853262 58.444443
4.8125658 -0.83082724 1.2770985 59.599998
5.0100498 -0.80036068 1.3130206 58.200001
5.2295356 -0.76489842 1.3241998 57
5.3852124 -0.74146628 1.2397469 55.599998
5.5867205 -0.70855558 1.2346866 54.5
5.8033051 -0.67530072 1.2673249 53
5.9427972 -0.65310061 1.2883906 53
6.0331931 -0.62881017 1.3018758 55.333332
6.2119651 -0.60753691 1.3291372 54
6.3913827 -0.58342385 1.3565041 50.666668
6.5319419 -0.56028855 1.3779075 50
6.8129611 -0.52141356 1.1921935 54.5
6.9671769 -0.49434915 1.2104021 55.5
-3.7384248 -0.078635707 1.2757753 60
7.0867658 -0.47289529 1.2245386 54
7.2309322 -0.45329824 1.2416655 54
7.3868747 -0.42131957 1.260119 53.5
7.5546927 -0.40046844 1.2801194 55
7.8132834 -0.35826227 1.3109077 52.5
8.0321655 -0.32428056 1.3370234 51.5
-2.7311447 0.087357089 1.3172127 46
8.221591 -0.29702103 1.3596634 51
8.3259573 -0.27765834 1.3721254 50
9.3302832 -0.14724687 1.1819972 50
9.5143185 -0.12385669 1.1976488 49
9.8324165 -0.071164563 1.2247106 47
10.074498 -0.011922657 1.2453233 46
10.33387 0.016239896 1.2674365 47
11.529363 0.21708557 1.3695693 42
3.2530673 1.0249254 1.2002982 42
3.3257754 1.0391266 1.2198212 42
3.4588118 1.0615635 1.2552652 42
3.8590195 1.119681 1.2966071 53.5
18.266684 1.2784892 1.3249451 61
9.3488722 4.1696839 1.2654297 10
9.6425028 4.2174006 1.2899263 10
-8.2679939 -2.8659461 1.5887033 59
-3.2269919 -3.1054688 1.5340068 85.133331
-7.7751694 -2.7857943 1.5272416 58
-7.6778555 -2.811276 1.5167644 53
-3.262949 -2.884737 1.5566925 85.916664
-6.2505927 -2.5640593 1.6026487 48
-3.2929528 -2.6880202 1.5349989 85.36364
-5.1984124 -2.4099338 1.4371488 53
-3.319587 -2.4971151 1.5149382 85.666664
-3.3484707 -2.2546816 1.490585 86.125
-3.3305097 -2.3543875 1.4990762 85.199997
-3.6324368 -2.1263494 1.5335723 56.5
-3.3979402 -2.1241417 1.4854268 72.454544
4.0223613 -0.94414699 1.4035447 54.400002
4.1927857 -0.92033136 1.4452523 54
4.4015999 -0.88683951 1.4965116 53.285713
4.6172557 -0.84710777 1.4871464 54.700001
4.7666788 -0.82670701 1.4663146 52.5
4.8776922 -0.81163049 1.4505289 51
5.0148144 -0.78920543 1.4802103 50.799999
5.2067084 -0.75822425 1.5219485 50.25
5.4178972 -0.72937906 1.4903148 52.57143
5.6282172 -0.70047808 1.4265387 55.5
5.8142824 -0.67035472 1.4610102 55
5.933094 -0.65375197 1.4831513 55
6.0262141 -0.62994277 1.5002681 56.666668
6.2297511 -0.60264015 1.5383871 56.333332
6.4100299 -0.5786562 1.5722294 53
6.6410809 -0.54359853 1.3945767 50
6.8243008 -0.51288867 1.4225675 49.666668
6.9880948 -0.48839775 1.4476749 49
-3.7422552 -0.076039836 1.5121919 50
7.076508 -0.47608939 1.4612572 48
7.2043724 -0.45377949 1.4808627 48.5
7.4144363 -0.41712394 1.5131278 47.666668
7.77667 -0.36494458 1.5690051 47
8.4719372 -0.25945053 1.3896126 50
8.6441984 -0.22851193 1.4102224 50
8.750864 -0.19396147 1.4229376 49
9.4760761 -0.12638399 1.5101177 47
9.6395454 -0.10161646 1.529766 46
9.8089352 -0.07431303 1.5501349 46
12.368491 0.3428812 1.4413916 45
12.520505 0.44205725 1.4546596 61.75
12.574303 0.53878856 1.4596015 67
12.580681 0.58115208 1.4603256 59
12.778205 0.62782276 1.4773642 62
5.5099001 1.3930219 1.4253845 63
6.8184667 1.5990477 1.4466214 52
8.3983803 1.876897 1.405972 63
8.3493204 1.9045019 1.4009886 71
12.25356 2.3063633 1.4512087 64.75
12.398181 2.2364244 1.4621511 49
12.084954 2.4472625 1.4396033 68
12.210354 2.3944559 1.4491233 70
12.211056 2.590029 1.4527966 65
6.8128963 3.7220001 1.5732026 23.5
12.135064 4.5649562 1.4977496 47
55.542675 7.5442033 1.2859007 45
55.565887 7.7430868 1.2869138 43
55.618832 7.9269233 1.2883351 35
55.554993 8.1040926 1.2879839 34
55.64827 8.2945786 1.2900552 44
55.545166 8.4559488 1.2890781 55
55.58387 8.6388855 1.2903204 39
55.468822 8.8174896 1.2892466 41
55.423416 8.9871445 1.2891966 48
-12.964025 -3.8080435 1.6871625 58
-12.922201 -3.4261413 1.6750273 69.400002
-12.692763 -3.4996593 1.656703 70
-13.037992 -3.2729681 1.6819155 60
-12.959737 -3.2984219 1.6756167 66
-3.232455 -3.0884626 1.763867 79.272728
-3.2648437 -2.8845749 1.7362845 81.916664
-6.6449924 -2.6116514 1.6644862 10
-6.456799 -2.5813682 1.6345322 48.5
-3.2992015 -2.6815877 1.7110626 63.583332
-5.1725841 -2.3967526 1.65681 57
-3.3470573 -2.425139 1.6829025 53
-3.3314781 -2.5211155 1.6935813 53.25
-13.555009 -1.9148999 1.7059847 58
-3.3541605 -2.29088 1.665448 54.916668
-3.6324911 -2.1248932 1.7086709 57.5
-3.3965402 -2.1218581 1.6524106 58.363636
4.7908177 -0.82290399 1.5931755 52.5
4.8637128 -0.81026685 1.6114024 52
5.0067253 -0.78925371 1.647496 51.799999
5.2165852 -0.75401318 1.7004855 51
5.4255743 -0.72087586 1.7536304 50.75
5.5891018 -0.69695723 1.6057425 48.75
5.8057137 -0.66343904 1.6535473 48
6.0180335 -0.62300646 1.7003556 50.25
6.2269025 -0.59614074 1.7469339 46.5
6.4189463 -0.5706687 1.6801633 49.5
6.6126394 -0.54276931 1.6101679 53
6.8081183 -0.51362419 1.646971 52
6.9683332 -0.488956 1.6771694 52
-13.905874 0.20307779 1.726932 43
-13.810617 0.27014437 1.7185061 45
7.0464425 -0.47579071 1.6918923 51
7.2217002 -0.44712117 1.7249868 50.666668
7.4066854 -0.40814701 1.759851 50.5
7.9965892 -0.3301751 1.6029671 46
-13.749994 0.38676721 1.713342 38.666668
8.2221355 -0.29550153 1.6378554 45.5
8.4584513 -0.25716996 1.6744438 44.5
8.6826782 -0.21676263 1.7091842 44.5
8.8519592 -0.18470812 1.7354341 44
10.077963 -0.015607335 1.5825005 45
10.231185 0.013254076 1.6009569 44
11.47409 0.2122196 1.7509763 38
8.3478069 1.8793414 1.68942 63
25.700174 2.348845 1.702242 55
25.712883 2.4297469 1.7033385 56
7.6167579 3.8434668 1.692307 22
7.761075 3.8724408 1.7143855 19
7.8728342 3.8865483 1.7308902 10
8.0115318 3.9278646 1.7531494 10
8.1697264 3.947937 1.7765963 22
-27.889992 -4.9796333 2.0029182 41
-27.965364 -4.4762678 2.0030472 10
-7.789547 -2.7740078 1.8461393 53
-7.6110239 -2.7700577 1.8188409 39
-6.6545362 -2.6128702 1.942664 23
-6.4563961 -2.5789082 1.9039052 51.5
-6.2879047 -2.5763631 1.8728139 52
-5.1275911 -2.3740931 1.8724985 51
5.6285815 -0.68867505 1.8054932 49.25
5.8177824 -0.65888619 1.8540199 48.666668
5.9984617 -0.6224221 1.9002423 49.75
6.1998315 -0.594841 1.9523634 49
6.4318581 -0.56472015 1.7926254 45
6.6124554 -0.53637695 1.832969 45.333332
6.8036389 -0.50645196 1.875765 44
6.9190178 -0.48778686 1.9016217 44
7.0354218 -0.46686658 1.9277034 44
7.2041149 -0.43887362 1.9655986 43.5
7.65938 -0.37101787 1.8077927 53
7.844873 -0.3479932 1.8430853 49
8.0185537 -0.32265043 1.8761169 48
8.1198664 -0.30482167 1.895372 49
8.2368317 -0.287204 1.9176455 47
8.4122648 -0.2579442 1.9510584 47.5
9.3160067 -0.1391702 1.8076617 41
9.4471025 -0.1151135 1.8280438 41
9.6117144 -0.091045529 1.8536705 41
9.9249601 -0.037890911 1.9024613 40
10.024156 -0.009809874 1.9179122 39
10.261611 0.020734988 1.95496 38
12.516232 0.41824555 1.8772359 53.666668
12.56665 0.51492882 1.8837579 67
12.657894 0.59877014 1.8952143 55
18.193415 1.2666762 1.9420313 62
12.279157 2.3063464 1.8750924 59.25
12.18546 2.4227631 1.8668206 68
12.219958 2.3915288 1.8701262 67
6.9185352 3.7787442 1.8571296 21
9.3996887 4.1612773 1.9643025 27.5
12.082138 4.5390949 1.9292934 10
-13.046366 -3.8277199 2.1938155 56
-12.939878 -3.4265316 2.1682765 67
-12.719192 -3.5026963 2.143925 68
-13.021599 -3.2871323 2.1740515 60.5
-7.8259964 -2.7838116 2.1706309 52
-6.4346151 -2.5669155 2.171469 45
-6.3308187 -2.5894527 2.1507466 45
-5.4198618 -0.308191 2.0474825 88
6.3153052 -0.58196127 1.9824017 47
6.4145784 -0.56492805 2.0080805 46.5
6.5895004 -0.53617942 2.0534456 46
6.8172121 -0.50014424 2.1126771 45.666668
-13.831069 0.29748136 2.2275608 44
7.0150042 -0.46746233 2.164207 45
7.3183575 -0.41645107 1.9912366 43
7.4384494 -0.39203545 2.0182133 45.5
7.6301146 -0.36160588 2.0614586 46
7.8461328 -0.32780984 2.1102772 42
-13.804092 0.36974278 2.224402 49.5
8.0540819 -0.29333204 2.1573145 41
8.6518297 -0.2185384 1.9967415 47
8.7661228 -0.18463212 2.0184643 47
8.977025 -0.1660527 2.0588481 49
9.3157082 -0.14251301 2.1237595 44
9.4597673 -0.11886981 2.1513212 45
11.40752 0.21509668 2.1340737 35
18.42226 1.3384427 1.9619879 63
8.3623848 1.8793105 1.9805149 63
8.3567696 1.9038962 1.980551 55
6.6813374 3.6642284 2.0656419 22.5
7.7608128 3.8838482 2.0087123 19.666666
7.987855 3.9266059 2.0512466 10
8.1968346 3.9574947 2.0897386 25
9.5106297 4.1607718 1.9800127 21
10.588724 4.3379631 2.1454937 10
10.718782 4.354804 2.1652455 10
-20.999161 -4.0496545 2.3939571 44
-20.965614 -3.938139 2.3892839 44.5
-20.965364 -3.7634826 2.3866627 46
-20.981392 -3.6269557 2.3861327 46
-20.968758 -3.547466 2.3839152 45
-21.033854 -3.4540412 2.3884201 64
-11.086247 -3.3363173 2.3775823 69
-8.2568607 -2.9008219 2.2581 50
-6.6666293 -2.6006329 2.2248139 44.5
-6.2197866 -2.5561359 2.3931296 49.5
-5.7901497 -2.4809377 2.2778516 67
-13.869705 0.20743403 2.2321906 34
-13.86534 0.25264585 2.2317369 36
7.2293491 -0.43286255 2.2201884 45
7.4262085 -0.39371684 2.2715538 45
7.699914 -0.35794482 2.3434517 44
7.7940779 -0.33886683 2.3681083 43
8.2243757 -0.2652401 2.1958814 41
8.3925514 -0.23660368 2.2340031 41
8.6224766 -0.1963529 2.2861714 40.5
8.8274326 -0.16547939 2.332762 40
9.617506 -0.094650447 2.1815248 44
9.7712526 -0.069367677 2.2109749 44
9.9879999 -0.027676165 2.2525132 43.5
10.218343 0.017499015 2.2966957 42
12.468405 0.41621608 2.3004506 46.666668
12.561028 0.51427108 2.3154616 61.5
12.679559 0.59669191 2.3345201 47
8.332777 1.8937262 2.2674575 61
8.4392109 1.8917136 2.291065 99
12.280919 2.3058016 2.3047469 50.5
12.190042 2.4045749 2.2938585 62
6.7204919 3.6962199 2.3422823 29
7.5776081 3.8279214 2.2631214 16
7.7355084 3.8500235 2.2974358 12.5
7.9151649 3.8694463 2.3359728 10
8.0677538 3.8874757 2.3689454 16
9.3767729 4.1632776 2.3113339 19
9.5111599 4.1905046 2.3370125 40
10.865492 4.3776307 2.1877823 27
12.006516 4.5066285 2.3607948 31.666666
12.066933 4.4047546 2.363796 17
-9.9791527 -3.2620146 2.601589 69
-9.9007845 -3.1649551 2.5812833 48
-8.1940298 -2.9362786 2.5859966 57
-8.0321627 -2.8501177 2.5438802 50
-6.4476075 -2.569571 2.4518554 48.5
7.8919063 -0.32193977 2.3937898 44
8.0501537 -0.29597452 2.4353929 43
8.2141838 -0.2676506 2.4785385 42
8.3867302 -0.23933586 2.5239947 42.5
8.5553255 -0.20942169 2.5684261 43
9.0973816 -0.14058407 2.3942747 38
9.2501268 -0.11795229 2.4290504 38
11.461473 0.21133849 2.5356941 43
7.9122424 1.8198112 2.4506793 61
-24.498011 -3.7471228 2.6992009 45
-12.968468 -3.335448 2.6692796 60
-12.932865 -3.4410777 2.6678474 60
-13.199835 -3.2565918 2.7024064 45
-13.019979 -3.2805219 2.6752348 53
-11.03587 -3.3177953 2.803463 52
-13.689011 0.25828174 2.7203321 41
-13.686774 0.3972654 2.7204611 27.333334
-13.562181 0.3939957 2.7004712 20.5
8.6779585 -0.18894032 2.6007857 44
8.7870178 -0.16721016 2.6295526 45
10.184491 0.012497991 2.6421604 75
12.477222 0.33174604 2.7312388 55
9.2775593 0.60786653 2.7632818 67.333336
12.500203 0.48837414 2.7366052 60.799999
12.556867 0.3750951 2.7467508 53
9.2588234 0.74748909 2.7609437 69.14286
12.462229 0.67991948 2.7309971 63
9.2326918 0.95739663 2.7590597 70.5
12.432669 0.86934972 2.7275813 63
9.2050114 1.1659899 2.758065 71
12.404708 1.0596063 2.7250791 63
9.1936197 1.2914538 2.7594681 71
12.460869 1.2579954 2.7394185 56.200001
12.43963 1.4677697 2.7398591 49.5
18.382328 1.328679 2.5898387 57
12.315807 1.6648157 2.7211273 61.799999
12.279301 1.8727973 2.7200606 63
12.24794 2.0811615 2.7206869 63
12.219554 2.2707012 2.721925 63.200001
12.163809 2.4135287 2.7167668 63.333332
25.740784 2.3425851 2.5918741 52
25.707834 2.4193647 2.5897553 57
25.873013 2.5150046 2.6046464 57
-10.791986 -4.9703879 2.8684945 41
-10.900601 -4.6715827 2.8653595 21.200001
-8.8940229 -4.6898031 2.8940406 13.75
-11.034884 -4.5544677 2.8812637 37
-10.967434 -4.5694432 2.8700328 17
-8.9487677 -4.5478301 2.8909695 14.4
-9.0178003 -4.2816844 2.8794115 11.5
-8.9703636 -4.3641243 2.8773375 13.2
-11.124656 -4.1448264 2.8696458 29.5
-9.0466566 -4.2041311 2.8782005 12.5
-7.7987537 -4.1139841 2.9528813 44
-7.7802095 -4.1290174 2.9502378 49.666668
-9.1894665 -3.8635087 2.8781705 19.5
-9.1648254 -3.9624538 2.8815072 20
-7.8381786 -3.9694915 2.94543 46.666668
-7.7765141 -3.9061995 2.9230094 56
-9.1858101 -3.8077297 2.8725922 33
-7.8391047 -3.7618358 2.9219928 49.833332
-14.148406 -3.314105 2.8527524 36.5
-11.207525 -3.408421 2.8407726 48
-7.9776239 -3.5140326 2.9295268 39
-7.8367119 -3.6438887 2.9083843 52
-14.185768 -3.1741655 2.8538303 38.5
-11.314614 -3.2447114 2.8523111 51.799999
-14.20804 -2.9845691 2.8511686 38
-11.377447 -3.0300789 2.8534393 53
-11.351932 -3.1239471 2.8531971 53
-9.4536905 -3.1070318 2.8770857 41.5
-8.1119442 -3.0751894 2.9204123 39.5
-14.229597 -2.7938852 2.8487408 38.25
-11.417381 -2.8589096 2.8529871 53
-9.5098276 -2.9155672 2.8766444 48.166668
-8.1149025 -2.9678929 2.9115155 42.799999
-14.27408 -2.5857677 2.8498535 38.599998
-11.454974 -2.6664605 2.8516531 53.200001
-9.582675 -2.7111249 2.8800561 47.714287
-8.1592255 -2.7054462 2.9005132 51.666668
-8.0847654 -2.8034782 2.8895559 50
-14.290398 -2.367502 2.8467054 38
-11.488565 -2.4541204 2.849375 53.833332
-9.6300716 -2.4990342 2.8782871 48
-8.2004604 -2.5519671 2.8990486 51.25
-14.313645 -2.1786504 2.8458438 37.5
-11.539244 -2.1671412 2.8484285 54
-11.521445 -2.2619843 2.848393 54.5
-9.6755276 -2.3046684 2.8780503 48
-8.2560768 -2.341676 2.8979232 51.142857
-11.556655 -2.0517671 2.8478913 54
-9.7353745 -2.0453408 2.8788826 47.5
-9.7146158 -2.1420228 2.8787434 48
-8.3005905 -2.1433702 2.8960686 51
-14.33637 -1.7469507 2.8404443 39
-14.321812 -1.8452793 2.8400044 37.5
-11.586863 -1.8577417 2.847611 54.200001
-9.7611437 -1.9141737 2.8789163 48.166668
-8.3565435 -1.9331445 2.8977258 51
-8.327611 -2.0315602 2.8960145 51
-14.285135 -1.6697526 2.8308628 38
-11.61726 -1.6650931 2.8480167 54
-9.7882776 -1.7169193 2.8769922 48.5
-8.3963108 -1.7494093 2.8979175 51
-11.644524 -1.4525131 2.8479512 54.5
-9.8206272 -1.5020514 2.8765426 48.57143
-8.4356117 -1.5517571 2.8983428 51.57143
-11.598955 -1.2321498 2.8341975 54.666668
-9.8425045 -1.3047198 2.8752 48.400002
-8.4785595 -1.3520093 2.9008489 51.714287
-9.8366013 -1.1180327 2.8686037 49.333332
-8.522521 -1.1395283 2.9043803 51.5
-8.5052509 -1.238606 2.903384 51
-11.874315 -0.86208463 2.8817215 36
-9.8083229 -0.98318291 2.8586979 49
-8.5425882 -0.95073795 2.9035964 51.42857
-9.9195375 -0.70777106 2.8790057 36
-8.5539865 -0.80679679 2.9026141 51
-8.384057 -0.78934133 2.8564434 55
-11.934749 -0.21190602 2.8877296 28.5
-9.9657879 -0.20944485 2.8840873 30
-11.937754 -0.09223175 2.8879471 36.5
-9.993125 -0.093432546 2.8899581 29.333334
-8.6840544 -0.14165473 2.9270959 38
-8.6613874 -0.092359319 2.9207089 36
-11.937756 0.22128233 2.8880584 31.5
-9.9993248 0.18868482 2.891294 37
-8.6748915 -0.0240217 2.924083 42
-8.655941 0.0050819516 2.9188929 16
-10.001757 0.30769634 2.8923893 20.333334
-8.674264 0.35540128 2.9249649 37
-8.6477194 0.2524932 2.917129 28.166666
-12.012074 0.48280364 2.9039309 10
-9.9940157 0.5082401 2.8921156 18.5
-8.6729174 0.53082615 2.9265118 31
-8.6424789 0.42779693 2.9170704 24.75
-11.957424 0.67979228 2.8948407 10
9.3694735 0.55571795 2.7868395 73
-7.8610249 3.7431657 2.9098654 52
8.9499025 3.2509773 2.8273785 45.5
-7.8140812 3.8491554 2.9098639 51.714287
8.9434528 3.3400295 2.8343375 43.25
-7.7648973 3.95736 2.9098589 52
-7.7313442 4.0531979 2.9127245 51.333332
-9.0549116 4.3498163 2.882416 47.5
-7.6768122 4.2378201 2.9214699 48.42857
-8.9909391 4.3951449 2.873095 49.5
-8.9076986 4.4856248 2.8642247 50.200001
-7.6006756 4.3971524 2.9228599 46.799999
-7.4991522 4.4914293 2.9106913 49.75
-8.8867035 4.6780896 2.8790607 51.833332
-7.3985572 4.6198969 2.9038446 51
-7.3364544 4.717299 2.9023955 51
-8.7910032 4.8726773 2.8793147 48.285713
-7.2641644 4.8277726 2.9009185 51
12.079779 4.358345 2.8058374 46
-10.742855 5.0947838 2.8628242 51.5
-10.704538 5.2067981 2.8649461 51
-8.6741943 5.0758142 2.8771954 48
-7.1644626 4.9886823 2.9008272 50.400002
-7.1057129 5.0900888 2.9022439 50.333332
12.046236 4.4536176 2.8063848 46.25
12.069687 4.5684357 2.8186555 42
-10.628979 5.3250165 2.861191 51
-8.5687208 5.2663269 2.8771241 48
-7.0142412 5.2202697 2.9011314 50.75
11.745353 4.7751794 2.7760687 20
12.020822 4.5911403 2.8115349 42
-10.540439 5.455986 2.8564906 52
-10.477157 5.5555887 2.8539026 52.666668
-8.4575119 5.4523125 2.8764355 48
-6.9331031 5.3417525 2.9015865 51
-6.8509116 5.4430933 2.8993576 51
-10.384475 5.7064447 2.8509808 53.166668
-8.3513584 5.6020913 2.8732917 48
-8.2743454 5.7119617 2.8716526 48
-6.7550397 5.5723276 2.8990848 51
-6.6829739 5.662353 2.8982356 51
-10.307691 5.8225498 2.8480604 53
-10.244586 5.9197383 2.8461061 53.200001
-8.1675644 5.8614058 2.8696961 48
-6.5774784 5.7998962 2.8987172 51.875
-6.481338 5.8906412 2.893868 60
-10.146164 6.0905457 2.8452897 52.599998
-10.090231 6.1934571 2.8456466 52
-8.0542974 6.045053 2.871711 47.333332
-6.4582686 6.0224934 2.9119134 67.571426
-10.064794 6.2454271 2.8464034 52.5
-7.9562187 6.2211351 2.8766124 44.666668
-7.8634481 6.3186955 2.872452 45
-6.3457451 6.1349492 2.908556 49
-6.280447 6.2159142 2.9097836 47
-7.7567301 6.4259281 2.8675308 47
-7.6731367 6.5285616 2.8666091 47
-7.6396837 6.5856562 2.8686895 46.666668
10.240742 0.0081056803 3.0147314 46
10.638499 -0.032031447 3.1204453 38
12.382223 0.13531484 3.1444521 44
11.776986 0.24280247 3.0064261 56
12.464689 0.51860559 3.1653342 55.333332
12.44187 0.67226148 3.1617539 55
12.411011 0.86129355 3.1573255 55
12.369388 1.1478627 3.153105 55
12.389746 1.0319161 3.1554224 55.5
12.346483 1.2780992 3.1508515 55.400002
12.318345 1.4667172 3.1492963 54.799999
12.28545 1.6734039 3.147949 55.333332
12.253078 1.8813813 3.1475911 55.200001
10.588182 2.1960742 3.1667042 50
10.624806 2.152235 3.1738279 49
12.223653 2.0702364 3.1480179 55
10.544582 2.2527738 3.1585732 51
12.188492 2.2964048 3.1494842 55.400002
12.205836 2.1851404 3.1486185 55
12.139361 2.4537687 3.1455755 55.666668
10.070962 4.0002952 3.1783893 10
9.6465597 4.2752419 3.1045365 23
11.246031 4.5609441 3.0945475 10
49.615463 7.376245 2.9301746 27
49.620079 7.6135001 2.9324868 29
10.913287 -0.20126316 3.1942139 28
10.888641 -0.1028478 3.1871161 34
10.995751 -0.15455374 3.215817 33.5
11.005548 0.14721526 3.2178979 37.25
12.583088 0.097605802 3.190311 43
11.007267 0.31520745 3.2190912 48
10.990995 0.48353121 3.2161837 48.5
12.505641 0.42479482 3.1739264 47
12.55677 0.36835364 3.1852312 45
10.763613 1.7050672 3.1885319 49
10.709341 1.9155701 3.1838391 48.857143
18.672279 1.7087463 3.2807949 47.5
10.656098 2.0740774 3.1778243 49
18.592348 1.9339091 3.2719593 44.5
18.6215 1.8189213 3.2745998 44
18.554203 2.1049368 3.2690802 42.5
18.510706 2.304744 3.2661881 42.333332
18.479321 2.5051455 3.2655642 42.75
18.418089 2.7628181 3.262038 42
18.437471 2.6779168 3.2630081 42.5
18.368708 2.9019964 3.257901 43.25
18.282867 3.0379994 3.2482107 45
10.231568 4.026063 3.2205045 10
10.039896 4.1648231 3.1879342 37
10.068377 4.0873337 3.1867611 26.5
11.76228 4.3192658 3.1834514 27.333334
11.716699 4.424294 3.1824541 23.333334
17.996103 4.6609735 3.2594836 10
55.456039 7.3348637 3.2200143 17
55.429081 7.5068698 3.2200305 42
25.112236 2.3544831 3.4095097 37
25.383745 2.4582891 3.4433756 38
24.926598 2.7716122 3.3927739 35.5
25.411472 2.6231422 3.4488351 50
24.859554 2.9233732 3.386975 34
24.772549 3.1091142 3.3794656 35
24.691402 3.3347867 3.3735261 36
24.63562 3.5688503 3.3710315 36
24.650909 3.4894638 3.3714085 35
24.576643 3.7146454 3.3667529 37.333332
24.511219 3.9461915 3.3635464 37.666668
36.243301 5.025713 3.5107391 10
36.212334 5.1959133 3.5103617 11
36.121994 5.4146595 3.5057178 18
36.131077 5.5876122 3.5089147 19
36.109657 5.8261027 3.5105865 10
36.245567 5.7329855 3.5206544 10
36.433613 4.7522979 3.5233891 18
36.445915 4.9260583 3.5265796 11
-13.534822 -0.50528127 -0.82834542 18
25.022614 6.8196888 -0.74136287 10
55.466217 7.9192257 -0.33634058 12
-12.799099 -3.5524487 -0.31311363 53
-12.931306 -3.3239903 -0.31603026 46.5
-12.852332 -3.4244208 -0.31362259 51.666668
-12.99896 -3.1993947 -0.31748906 47.25
-13.007659 -2.9892783 -0.31450945 48.200001
-13.019605 -2.7828331 -0.31190819 49.25
-13.064278 -2.5554943 -0.31090391 49.5
-13.050576 -2.6683106 -0.31182429 49
-13.08764 -2.3747993 -0.30959553 51
-13.114869 -2.1707935 -0.30831119 51.799999
-12.944576 -2.0068154 -0.29706335 56
-12.519936 -1.8313791 -0.2720817 50
-12.365022 -1.7387623 -0.26263535 52
-12.242356 -1.6358869 -0.25482699 50.333332
-12.184396 -1.5429606 -0.25064015 51
-12.144253 -1.4954559 -0.24794519 55
-13.517804 -0.524616 -0.31349257 37.5
-13.542049 -0.43359405 -0.31418076 37
-13.566631 -0.10670337 -0.31350693 19.5
-6.5960598 -0.59771574 -0.21052563 44
-13.559356 0.031626359 -0.31238094 31.5
-13.542991 0.19538283 -0.31070593 43
-13.511965 0.19532251 -0.30902478 27
-8.0927267 -2.8929214 -0.055009253 46
-7.9637628 -2.8815217 -0.048118994 37
-7.4585404 -2.8027706 -0.020430939 38
-3.143384 -2.9989653 -0.002760129 94
-7.2983661 -2.7765937 -0.011636259 49
-7.1854787 -2.7661648 -0.0056182686 41
-3.170208 -2.8834729 0.0017986838 94
-5.4729834 -2.470335 -0.16058706 42
-3.1912026 -2.7452421 0.0078641623 94
-5.5473132 -2.3902669 -0.16383687 50.5
-5.3432417 -2.4533744 -0.14919615 43.5
-5.1719551 -2.4295073 -0.13412216 44.5
-4.9653549 -2.4004626 -0.1159656 46
-4.7330737 -2.3685284 -0.095626622 48.666668
-4.5234938 -2.3299465 -0.076928139 52
-5.5289559 -2.1319995 -0.15326265 20
-4.3302269 -2.2961473 -0.05979266 55.666668
-4.1277781 -2.2637396 -0.042006783 58
-3.9417357 -2.2357597 -0.025782483 57.333332
-3.7528596 -2.2032857 -0.0091841612 58
-3.5993199 -2.1740661 0.0043982398 61
-2.2664523 -2.2614717 -0.044996478 70.625
-2.2084022 -2.3005605 -0.042195968 71.5
-4.9080467 -1.989971 -0.096106559 10
-3.52279 -2.1641665 0.010950133 61
-2.4706016 -2.0765333 -0.052443355 69.916664
-2.3644485 -2.183228 -0.04908824 69.800003
-5.0458426 -1.7604601 -0.10025799 10.333333
-4.9906697 -1.7862394 -0.09637472 10
-2.6862478 -1.8794895 -0.062409736 66.230766
-2.5710869 -1.9791991 -0.056416348 69.5
-5.2249718 -1.5626678 -0.10977124 10
-5.1042466 -1.616406 -0.10094151 11.5
-5.0001469 -1.68914 -0.094159856 16
-2.8085318 -1.6185979 -0.060332373 39.666668
-2.7647972 -1.7193301 -0.061265826 48.307693
-1.4232923 -1.6921923 -0.032447934 88
-1.2952615 -1.7424189 -0.021411462 62.63158
-1.103531 -1.7727418 -0.0011456255 72.333336
-0.9867183 -1.7598253 0.014177782 90.333336
-5.2818947 -1.3398956 -0.1088116 13.555555
-5.1712074 -1.4521776 -0.10210362 17.75
-3.0738988 -1.4196213 -0.080345303 72.833336
-2.9070711 -1.5186567 -0.066158801 43.0625
-1.6135465 -1.4927244 -0.038895354 83.14286
-1.5141982 -1.5968162 -0.035146669 86.285713
-0.65128958 -1.5427021 -0.011169488 59.5
-0.50915492 -1.6349065 -0.0055937041 60.48148
-0.34743094 -1.6589081 0.011149643 84.599998
0.13215125 -1.5632961 0.0058006402 58.545456
0.24133772 -1.569693 0.016311726 85.666664
-5.4281826 -1.1144115 -0.11629932 10.4
-5.3233137 -1.2007767 -0.10905819 10
-3.0662909 -1.2813531 -0.072931975 44
-1.7927731 -1.2733933 -0.045836955 74.75
-1.7136368 -1.3791236 -0.043127403 80.681816
-0.87990761 -1.3541969 -0.019803887 71.57692
-0.74710631 -1.4607435 -0.013539361 59.125
-0.24052155 -1.3741107 -0.0068656821 54.047619
-0.089971423 -1.4726408 -0.0038001258 54.058823
0.039636731 -1.5370824 0.0003765244 55.222221
0.33271211 -1.3948768 -0.0031500626 60.5
0.51199538 -1.4660087 -0.0024119411 60.861111
0.71238822 -1.4972568 0.0046744626 66.472221
0.86884618 -1.4773679 0.018002898 96.736839
-5.593545 -0.88504601 -0.12622708 10
-5.5120831 -0.9794184 -0.120875 10
-3.1962709 -1.0119309 -0.07709989 37.333332
-3.1271787 -1.1236036 -0.073280767 37.666668
-1.8567408 -1.1463152 -0.045862913 52.826088
-1.0714663 -1.1882333 -0.031171987 86.181816
-0.97557127 -1.2909513 -0.027028764 90
-0.46154261 -1.1951282 -0.012621308 53.848484
-0.33739161 -1.300236 -0.0089789536 54.3125
-0.04126215 -1.1889145 -0.010156045 58.655174
0.12228316 -1.2916827 -0.0067467336 58.666668
0.24132156 -1.3497504 -0.0033873636 61.166668
1.7829568 -1.3367504 0.023313873 80.35714
1.9127461 -1.2913241 0.019058555 63.944443
-5.7935324 -0.67134786 -0.1402995 10
-5.5046058 -0.80674541 -0.11695938 10
-3.2585621 -0.87388384 -0.079700127 37.866665
-2.0151906 -0.91903412 -0.054760739 54.705883
-1.9418815 -1.0197384 -0.049842268 50
-1.2133216 -0.98098302 -0.034263521 71.57692
-1.1588019 -1.077849 -0.03406214 87
-0.7763238 -0.9261266 -0.033457413 81.375
-0.67745554 -1.0260516 -0.027260372 76.6875
-0.55505848 -1.099848 -0.014535429 54.285713
-0.2615025 -1.012778 -0.016747257 58.046513
-0.13856006 -1.1180661 -0.012788618 58.384617
2.0125957 -1.2355374 0.019036241 63
2.1266944 -1.1434164 0.021981273 62.5625
-6.1901469 -0.53354961 -0.17356034 26
-5.6307282 -0.60832292 -0.1248932 10
-3.3614063 -0.59577107 -0.083850883 37.75
-3.3240132 -0.69833851 -0.082119681 37.363636
-2.1658425 -0.66123235 -0.064474218 48.5
-2.1097326 -0.7666083 -0.060886033 48.625
-1.3765775 -0.69412094 -0.040020987 54
-1.3085307 -0.79582429 -0.035287283 54.75
-0.83557129 -0.80021775 -0.030943537 66.53125
-0.45022845 -0.80848694 -0.023068057 63.5
-0.35304463 -0.9120723 -0.017755629 58.75
2.2288642 -1.0510758 0.024581091 63.333332
2.292923 -0.98404634 0.025849778 61.919998
-5.3654294 -0.36858636 -0.098047778 37
-3.399991 -0.4709062 -0.085597619 35.5
-2.2159462 -0.52929252 -0.0668457 48.400002
-1.4401904 -0.56935817 -0.043785103 53.846153
-0.9686805 -0.53960025 -0.033960551 51
-0.9119271 -0.64426774 -0.030906199 51.388889
-0.59689188 -0.60638934 -0.030060099 61.222221
-0.53992116 -0.70444971 -0.028576 65
2.4330263 -0.82061517 0.027676057 61
2.4983983 -0.73005116 0.02795407 60.923077
-3.6544142 -0.20423862 -0.11207876 53.666668
-3.4442391 -0.32155782 -0.087960094 35
-2.2878323 -0.32847971 -0.071369722 48.052631
-1.5501162 -0.29225478 -0.050585426 53
-1.5132424 -0.39622724 -0.048136584 53.5
-1.0386201 -0.3891657 -0.038449869 50.935482
-0.73577666 -0.3259483 -0.036928251 56.5
-0.68983591 -0.42714328 -0.034031898 56.354839
2.6042948 -0.55429131 0.028003057 60.241379
-3.6324248 -0.12516052 -0.10823239 51
-3.4118905 -0.060422629 -0.079982556 50
-3.3116126 -0.041179314 -0.067275584 47
-2.3595591 -0.10631952 -0.077466369 69.800003
-2.3181314 -0.20650795 -0.072910503 48
-1.5862373 -0.15831399 -0.052968495 55
-1.1296257 -0.1201981 -0.045036867 50.333332
-1.0984424 -0.21812612 -0.042136118 50.650002
-0.77993989 -0.2045604 -0.040254243 56.055557
2.6552458 -0.44365007 0.028764924 60
2.6975121 -0.34612918 0.027829416 59.57143
-2.3551717 0.042490229 -0.074481234 53.916668
-2.2174153 0.12882324 -0.051517323 57.333332
-2.0895114 0.15295707 -0.030830251 55
-1.6444145 0.03971456 -0.059733689 64.739128
-1.1671599 0.013690487 -0.049777441 58.034481
-0.83531213 0.00060778856 -0.045351923 60.303032
2.7583556 -0.18058285 0.025106492 58.918919
3.0264111 -0.1374017 0.030519173 53.07143
-1.8292252 0.19526944 0.011151785 56.333332
-1.6174346 0.19238205 -0.052724913 57
-1.4272999 0.25838658 -0.015179871 58.25
-1.1839753 0.20706891 -0.047501937 52.48
-0.91647279 0.29832679 0.011367718 56
-0.85254383 0.2001216 -0.046258956 56.9375
2.799268 0.016337454 0.024087064 58.081081
3.0456212 -0.0052813888 0.030934162 51.82143
-0.95565498 0.45204818 -4.8140064e-05 58.18182
-0.85245705 0.39125407 -0.034685895 58.487179
2.7962608 0.21849452 0.028505636 57.891891
3.0477128 0.29178616 0.034020931 51
-1.1171414 0.59445333 -0.04154291 57.18182
-0.89811945 0.65636563 0.0060207993 57.25
-0.8332572 0.61433631 -0.041531809 58.650002
2.7934623 0.42055461 0.026446648 58
3.0389824 0.43858927 0.033727184 51.099998
-0.71425843 0.70723331 -0.024874633 65
2.7749 0.62148952 0.022241689 60.277779
3.0239177 0.60808527 0.03142643 52.65625
3.3745956 0.66948158 0.035178039 53.833332
-2.3100796 1.1416814 -0.081815183 99
2.6978579 0.86918944 0.02210363 60.333332
2.7445374 0.77242166 0.019310167 59.157894
2.9967535 0.80997658 0.026423531 53.9375
3.3695569 0.79457712 0.031039115 65.555557
3.891643 0.8354075 0.03493629 83.5
2.9201889 0.93260628 0.034077905 56
2.9591134 0.9241696 0.026465978 52.166668
3.3190455 0.96627343 0.031586908 56
3.3478322 0.91513103 0.029235551 60.599998
3.8325052 1.0071313 0.037751339 59.416668
-3.5348721 1.5321627 -0.1102256 76.333336
-3.3581047 1.5345701 -0.089120246 52
-5.369185 2.0470705 -0.10797179 60.25
-4.332592 3.014483 -0.048343316 10
-4.3368955 3.0863118 -0.051274359 10
-12.721976 -5.7962894 0.16859758 10
-12.819083 -5.3173828 0.17218263 26
-12.757054 -5.3967957 0.17243616 10.5
-12.818538 -4.8367181 0.17730495 18.5
-12.894082 -4.394093 0.18040319 28
-12.932489 -3.963263 0.18385118 47
-3.1562886 -2.9964337 0.18325296 89
-6.5837512 -2.661561 0.027497208 14
-6.4381475 -2.6346941 0.035534561 46
-3.1733956 -2.8840609 0.18647957 89.36364
-6.3179646 -2.6193905 0.042006753 47
-6.1323376 -2.601429 0.051860049 46
-3.2074728 -2.6707482 0.12180141 91.555557
-5.1089778 -2.4361448 0.10750474 36
-3.2462339 -2.4169822 0.11966538 91.777779
-3.2308545 -2.5202842 0.10054642 92.333336
-3.6005378 -2.1640692 0.18935379 57
-3.2704172 -2.2772059 0.11379559 92.416664
-3.4886055 -2.1499839 0.15008461 59
-3.3270092 -2.1434598 0.11527368 72.416664
-1.5735112 -1.8716377 0.054880135 80
-1.4786998 -1.8381969 0.13473727 65.166664
-1.3041769 -1.8086737 0.14164735 64.318184
-1.1018723 -1.7793696 0.15355818 63.173912
-0.89113832 -1.7475579 0.080734171 78.347824
-0.73909438 -1.7203991 0.096507251 77.166664
-0.64000583 -1.7042159 0.10790591 75.333336
-0.49650085 -1.6801612 0.12414214 69.235291
-0.2844398 -1.6477809 0.12041359 81.224487
-0.093801618 -1.6184527 0.12509148 76
0.098024845 -1.5917312 0.1248837 76.583336
0.25775772 -1.5663445 0.1119085 82.03846
0.35271412 -1.552194 0.10169329 86.520836
0.5112806 -1.5290068 0.11580732 89.085106
0.71365166 -1.501712 0.13215297 83.980766
0.9218303 -1.4713408 0.12904434 80.65873
1.1152271 -1.4391961 0.12292662 91.335487
1.2645402 -1.4172279 0.14433603 90.888885
-13.559095 -0.49807692 0.19740191 45
-13.550831 -0.54382414 0.19731897 37
1.3521461 -1.3984783 0.11671022 93
1.5185741 -1.3746053 0.127415 90.602562
1.713805 -1.3456904 0.12868859 82.768654
1.9201925 -1.3090038 0.14038727 89.371429
2.1209044 -1.273605 0.12698531 89.260414
2.2558641 -1.2590938 0.084597148 85.214287
-13.560219 -0.42891717 0.19774216 40.5
2.2224178 -1.2555039 0.1844836 75
2.34589 -1.2301053 0.10498225 73.65432
2.5154135 -1.1802588 0.097781375 81.069443
2.7322521 -1.1704696 0.13921356 82.626869
2.9186161 -1.133397 0.12928228 70.981819
3.0895205 -1.1100701 0.1405564 81.449997
-13.63064 -0.10248396 0.19801235 20.5
2.344347 -0.9193728 0.028284926 61.799999
2.5829935 -1.0037774 0.03601408 56.689655
2.6551733 -0.90600348 0.03713882 54.81818
2.986634 -0.99321485 0.044007145 60.75
3.1785455 -1.0822326 0.13477512 77.133331
3.3351016 -1.0699307 0.11924557 84.117645
3.5185151 -1.0064502 0.094140127 66.36364
3.7582493 -0.99543989 0.16068682 68.777779
3.9407296 -0.96724761 0.1589057 71.14286
4.0488534 -0.95060897 0.1518784 70
-13.625788 0.036388904 0.19876112 33
-5.1089482 -0.32592696 0.14389178 44
2.418997 -0.82971168 0.029072305 61.23077
2.4874182 -0.73559427 0.029580954 61
2.7383895 -0.78082871 0.03736268 55.36842
3.1076999 -0.79864573 0.043205291 59.299999
3.6033945 -0.83884656 0.050756682 59.409092
3.6573234 -0.739371 0.04918243 58.25
4.1524987 -0.93193102 0.13957454 68.157898
4.3638148 -0.86574161 0.10716884 59.357143
4.5503969 -0.85917842 0.17034988 65.875
4.7510982 -0.83368516 0.15464085 62
4.9039569 -0.80648386 0.1427865 62.200001
-13.602779 0.17780079 0.19985239 46
2.5578473 -0.62089193 0.030304391 60.923077
2.8315687 -0.61916333 0.037084837 54.739132
2.8804197 -0.52344626 0.036264919 54
3.2057738 -0.60629433 0.041855346 58.066666
3.6547275 -0.71476769 0.051007651 58
3.7087388 -0.62294132 0.047968149 59.130436
4.4440923 -0.74881828 0.059529617 55.333332
4.48421 -0.65085572 0.05835551 56.625
5.0177994 -0.78387332 0.13395779 62
5.1683626 -0.76063079 0.12202919 62.666668
5.3617764 -0.72848433 0.10666563 62.799999
5.556345 -0.69784367 0.091065176 60.599998
5.7287726 -0.6563707 0.077457964 53.799999
5.903152 -0.64500517 0.23416485 54
2.644968 -0.44996798 0.030632608 60
2.9363098 -0.39317662 0.034963198 53.705883
3.258399 -0.48464173 0.040829781 57
3.2932262 -0.38884479 0.039983414 57.434784
3.7820983 -0.43428701 0.045708742 58.608696
4.5426488 -0.46957529 0.057112694 56.055557
5.8270535 -0.53586173 0.071454696 54.53846
5.9870901 -0.62841183 0.23021124 54
6.149847 -0.59861201 0.22248858 58
6.3676863 -0.56435674 0.21203813 54
6.5619555 -0.53215629 0.20270255 54
6.7470179 -0.50286603 0.19376397 53.333332
-2.53652 0.084752314 0.030548081 49
-2.5072803 0.10255383 0.034338962 41
2.9910104 -0.23356259 0.033572216 53.049999
3.3539062 -0.21148938 0.036946543 56.92857
3.8426919 -0.23937064 0.043303281 58.260868
4.5935354 -0.27375209 0.055845678 57.611111
5.8567114 -0.42479306 0.070851684 56.5
5.9048963 -0.32238632 0.068260923 57.833332
6.9517994 -0.47281206 0.18381953 51.666668
7.1652145 -0.43881422 0.17345545 50
7.3764472 -0.40130591 0.1632075 50.666668
7.5749888 -0.3692295 0.15352185 50.5
7.7387171 -0.34155494 0.14552994 51
-1.5846039 0.23199105 0.10022911 54.666668
-1.4164146 0.25962594 0.12939233 55.222221
-1.1869589 0.29981622 0.1097758 85.933334
3.0295486 0.09588249 0.037089676 51
3.391305 -0.013633713 0.035996195 55.370369
3.8726907 -0.04067491 0.043405674 55.849998
3.8934336 -0.021598384 0.040568061 54.666668
4.631814 -0.074125051 0.054747656 54.277779
5.9712911 -0.14217272 0.064815953 63.583332
7.8626628 -0.32005709 0.13947606 51
7.9994922 -0.29824221 0.13276768 51
8.1999426 -0.26600984 0.12292936 49.5
8.4170532 -0.2347644 0.11222862 46.5
8.6081181 -0.19936001 0.10285756 43.5
-1.1552025 0.36444771 0.12354464 92.625
-0.96197021 0.41743523 0.12171996 81.918922
-0.8322041 0.34769273 0.030463539 64.800003
3.0388947 0.19869125 0.035927758 50.965519
3.3805642 0.18908082 0.040931467 53.964287
3.8416467 0.16748521 0.050850563 52.173912
4.5710111 0.13182446 0.064254656 49.777779
5.803895 0.07490918 0.081018038 61.923077
5.999392 -0.042777613 0.063408323 65
8.4893904 -0.059610814 0.10979524 47
8.5582094 -0.076758713 0.10620122 46.714287
-1.1378516 0.58789283 0.10391545 77.960785
-0.93170846 0.61974108 0.13420178 82.400002
-0.83947694 0.66791677 0.11614422 82.222221
0.061941504 0.59599769 0.19829918 48.863636
0.16564792 0.50931311 0.21705376 68.727272
3.0384336 0.3546367 0.035482474 51.333332
3.3823428 0.39064795 0.040009655 54.111111
3.8577647 0.36645371 0.048492327 51.954544
4.5829015 0.32705876 0.063510694 46.882355
5.7429214 0.27015334 0.08721406 38.23077
8.4673843 0.14155132 0.11202589 57.666668
8.5115833 0.10570501 0.1095954 54.333332
-1.2182497 0.80831379 0.099514127 65
-0.90445983 0.76904839 0.07461717 99
-0.78687859 0.71857727 0.067176536 67.92308
3.376029 0.56796312 0.03791872 54.095238
3.856318 0.56264549 0.046659715 51.954544
4.591795 0.52374297 0.06177102 46.833332
5.7653155 0.46527347 0.085563004 38.46154
7.9020786 0.35419315 0.14144939 15
7.9345446 0.38576484 0.13990341 16
8.5458527 0.24642485 0.10854161 60
2.3067088 0.85340804 0.11786748 64.428574
2.4559014 0.87466955 0.096159592 61.722221
2.6143162 0.89921755 0.080956854 58.799999
3.8507123 0.7449863 0.043680109 52.117645
4.5953321 0.72864252 0.059235647 46.5
5.7717991 0.66844869 0.084527612 38.07143
7.9089046 0.4857963 0.14147173 20
7.9678106 0.56267834 0.13864137 15.375
2.8469002 0.93738443 0.097708359 61.565216
3.0390537 0.96849608 0.12837303 60
3.238163 1.0061553 0.10957183 58
3.4316201 1.043829 0.14201812 54.799999
3.6088591 1.068103 0.087913133 56.400002
3.8337083 0.94026458 0.040132374 53.363636
4.6024594 0.92630786 0.055019531 49.4375
5.7938433 0.86910069 0.081452325 37.416668
7.9990172 0.75496858 0.1372571 15.333333
2.8526945 1.2499335 0.16471928 10
2.9997857 1.237679 0.14573404 10
3.4640746 1.2612429 0.079140924 13.5
3.6946602 1.0840163 0.11575136 54.599998
3.8379803 1.1034157 0.1395402 64.375
3.9565673 1.1208793 0.23134178 62
4.2389264 1.1662636 0.2073278 63
4.4887328 1.1899517 0.061764292 51.5
4.5903544 1.0934929 0.052592218 67.769234
5.7887068 1.0606558 0.080048211 36.923077
8.0366535 0.94869483 0.13528083 12.5
3.2684207 1.3435304 0.10130407 10
3.4802637 1.3212706 0.073136412 10.571428
5.7769518 1.1757386 0.07964582 36.5
5.9844565 1.3271697 0.060144499 92.5
8.0893459 1.1475708 0.13226576 12.888889
-5.3646421 2.0469923 0.12820533 74.25
-1.6501731 1.9081075 0.089737274 10
-1.5080656 1.9094602 0.10463791 10
-1.2852224 1.8448976 0.13191105 10
-1.085471 1.7460965 0.15890685 10
-0.85620594 1.7790846 0.086058564 10
3.9106073 1.6312108 0.10890748 10
4.1052709 1.5918183 0.0896843 12
5.6528978 1.4026048 0.086432368 47
5.8870387 1.3903663 0.06724184 62.5
8.1413536 1.344619 0.12902877 12.285714
8.1695471 1.3888505 0.12745468 13
-1.6383919 1.9554265 0.08810135 10
-1.5584291 1.9508826 0.096764103 10
3.9384279 1.6870058 0.10303365 10
4.0441766 1.7102665 0.090500996 10
8.141902 1.5475311 0.12805524 12.666667
8.2016277 1.5117459 0.12528819 12
18.245287 1.3154144 0.22211343 52
8.3669062 1.8802859 0.114837 57
8.4481487 1.8745246 0.11088356 71
8.7372847 1.8624673 0.09672533 97.333336
8.8199205 1.8296177 0.092863455 99
25.838095 2.4771967 0.10798778 44.5
7.8753071 3.8779311 0.10969927 25
8.010066 3.8944416 0.10339951 28.333334
8.2141581 3.9172006 0.093874916 24.333334
8.418458 3.9505115 0.084101059 11
25.136526 6.8341379 0.12441805 16
-11.644432 -5.5724921 0.19042002 18
-12.79581 -3.545733 0.19024895 60
-12.907877 -3.3357487 0.19000371 55
-12.863178 -3.4214215 0.19009176 59
-12.019454 -3.5150476 0.20506707 48
-12.954967 -3.206511 0.19023043 57.400002
-12.98879 -3.002563 0.19131368 58
-13.012876 -2.7989178 0.19252577 59.799999
-13.02814 -2.5889602 0.19390664 61.25
-7.7250838 -2.8279262 0.29143661 50
-7.5315948 -2.8243685 0.29503155 30
-3.1619191 -2.9977164 0.3692019 78
-13.061161 -2.3412719 0.19518062 65.333336
-13.044557 -2.4539576 0.19464141 62
-6.4362564 -2.6305394 0.31710365 50
-3.1803012 -2.8861604 0.37055457 95.909088
-13.09443 -2.1847687 0.19570841 72.75
-6.3177996 -2.6159225 0.31941828 48
-6.1692839 -2.6122766 0.32216021 49
-3.2137265 -2.6869373 0.37288401 96.727272
-13.127892 -1.9840614 0.19651616 64.400002
-5.1939554 -2.4689298 0.34137124 43
-3.2509327 -2.4300747 0.37582058 97
-3.2356753 -2.5345993 0.37465185 97
-13.1713 -1.7795792 0.19711055 60
-3.2782769 -2.2784595 0.3773647 97.083336
-13.154288 -1.6632947 0.19822708 60
-3.5259871 -2.1521001 0.37469515 61
-3.331111 -2.142621 0.37820271 77
-13.331489 -1.2244089 0.19764233 50
-1.477842 -1.8318325 0.36029819 65.307693
-1.3191749 -1.8055221 0.34531593 59
-1.0860094 -1.7707043 0.30286783 58
-0.89769781 -1.744182 0.27897668 66.120003
-0.75098991 -1.7169025 0.26490226 62.545456
-0.66230106 -1.7015191 0.3034167 62.894737
-0.49244237 -1.6753635 0.30096099 64
-0.29152513 -1.6439382 0.31200102 64.236839
-0.091064692 -1.613971 0.32231832 64.545456
0.11864561 -1.5809764 0.30670521 64.800003
0.24010766 -1.5635475 0.2973572 64.916664
0.33912528 -1.5470959 0.30951187 66
0.51006556 -1.5271002 0.31574088 76.344086
0.7113266 -1.4995672 0.32339633 73.980392
0.91372311 -1.4707663 0.329312 78.288292
1.1165562 -1.4403937 0.33383241 83.534485
1.2599435 -1.4177054 0.32252917 86.630432
1.355068 -1.3984065 0.34383416 88.323944
1.5187228 -1.3754754 0.33519298 84.615387
1.7194395 -1.3434708 0.33291125 79.20536
1.9219961 -1.308539 0.32804847 78.444443
2.1128583 -1.2731612 0.32307252 70.918602
2.2087901 -1.2511697 0.32545236 68.333336
2.3248506 -1.2331071 0.31431761 67.181816
2.526329 -1.1989328 0.30664644 65.807693
2.7246518 -1.1657425 0.32896328 66.404259
2.9264627 -1.1294074 0.32482791 66.048782
3.0680897 -1.1082736 0.3137663 65.692307
