# .PCD v0.7 - Point Cloud Data file format
VERSION 0.7
FIELDS x y z intensity
SIZE 4 4 4 4
TYPE F F F F
COUNT 1 1 1 1
WIDTH 1206
HEIGHT 1
VIEWPOINT 0 0 0 1 0 0 0
POINTS 1206
DATA ascii
-8.563282 3.1208799 2.2192943 52
-8.69911 3.0924163 2.2490728 52.833332
-8.9204922 3.0482392 2.2980967 53.400002
-9.118928 3.012758 2.3426251 53
-9.3031673 2.9793141 2.3842573 52.75
-9.9689579 2.886986 2.2395003 71
-10.122234 2.8539805 2.2698264 53
3.2733521 5.8873897 2.1060593 56
4.6319704 5.4568629 2.2731836 60
4.020483 5.5306859 2.1798682 58
3.2929187 5.7842116 2.0963132 55.400002
4.6742001 5.3057823 2.2659111 53
3.9621024 5.5150552 2.1688032 54
3.8299346 5.4871864 2.1446517 54.75
3.6569085 5.4534693 2.1135039 55
4.6850443 5.1650209 2.2546761 52
5.0356708 3.3131943 2.190238 72
4.4675307 3.4557724 2.3558185 56
5.0756273 3.0764844 2.1879356 72
5.05724 3.1884623 2.1889703 72
4.5110312 3.2336252 2.3506994 56.25
4.4920216 3.3382699 2.3532302 56.400002
5.098278 2.9669702 2.1883137 72.375
4.53578 3.0808353 2.3470819 57
5.1364775 2.7595091 2.1889997 72.777779
4.5735736 2.8732667 2.3444214 57.555557
5.21242 2.5262394 2.1980572 52.285713
5.1582446 2.6243072 2.1894464 67
4.6187215 2.6467521 2.3442738 58
4.5923038 2.7594459 2.3431072 58
4.6603756 2.4445682 2.3461211 57.444443
4.7093267 2.1750939 2.3494036 57
4.6848068 2.2861395 2.3466465 57
4.7355576 2.0181975 2.3521206 57
5.6378455 1.5872984 2.2779782 49.25
5.5371494 1.6347044 2.2564902 50
5.390173 1.6612945 2.2254069 51
4.773561 1.8058505 2.3578732 56.700001
5.6684332 1.4258649 2.2857134 49
4.8138175 1.5945659 2.3659086 56.888889
5.6508336 1.2468271 2.2841501 48.200001
5.4982433 1.1558009 2.2531092 54
4.8548365 1.3831589 2.3759055 56.400002
5.4882669 1.0227721 2.2536075 72.333336
5.4614811 1.0542674 2.2471778 72.199997
4.9038148 1.1153871 2.3902316 56
4.8848157 1.2164283 2.3843534 56.200001
5.5043693 0.83588719 2.2614715 74
4.9370108 0.95866418 2.4011426 56.900002
5.5477605 0.62854862 2.2769101 74
4.9730773 0.74427533 2.4151447 57
5.587955 0.39483625 2.2940035 73.714287
5.5659523 0.50593162 2.2850142 74
5.0090356 0.53982031 2.4305267 57
-8.5620327 3.1584506 2.4782512 43
5.6243691 0.20804805 2.3097703 72.25
5.0518084 0.33319083 2.4492795 56.888889
-8.5563736 3.1322012 2.4750295 54
-8.6846952 3.1008201 2.5068889 55
-8.9073858 3.0577297 2.5633426 54.200001
5.6753941 -0.081171334 2.3349862 69
5.6597724 0.032253265 2.3257511 70.5
5.1053123 0.07712701 2.4747782 56.400002
5.0817008 0.18219829 2.4635849 56.25
-9.422554 2.9585862 2.4114082 56
-9.4912062 2.9447196 2.4270082 55.5
5.7138653 -0.21321297 2.3505988 52.714287
-9.5903778 2.9251425 2.4496238 53.5
-9.7466736 2.8987989 2.4855788 51
-9.9578667 2.8593802 2.5342925 51
5.710783 -0.3994242 2.3611257 53.5
5.7685399 -0.6880247 2.3927381 53.25
5.752471 -0.59617144 2.3829179 53.333332
5.8156352 -0.85006946 2.4146786 50
5.8408751 -1.0249579 2.4334891 52.666668
4.5575356 5.8460069 2.3002069 59
4.5932503 5.6663885 2.2875485 61
4.5738392 5.7724133 2.2952087 60.333332
4.6132722 5.5605788 2.2802458 60.666668
4.0270224 5.5399928 2.477371 59
3.3123722 5.7554016 2.376843 57
3.971971 5.5271015 2.4652848 55
3.8416104 5.5007453 2.4373159 55.75
3.6194339 5.4571981 2.3901434 56
3.3528333 5.5282168 2.351382 57.166668
3.3323841 5.6404762 2.3636925 57
3.418139 5.4248791 2.3487551 56.25
4.2192311 4.9088645 2.4380515 53.5
4.2085466 4.9781976 2.4438336 53.666668
4.2456312 4.7766094 2.4286845 52.75
4.2844772 4.5516806 2.4126391 53.444443
4.3249335 4.3475213 2.4004617 53.57143
4.3635216 4.1463814 2.389555 52.777779
4.3873096 3.9285133 2.3752491 54.375
4.4310923 3.71083 2.3668962 55
4.4014168 3.8140268 2.3686311 56
4.4508963 3.5632575 2.359911 56
-9.0380478 3.0353432 2.5968781 54
-9.1335716 3.0205376 2.6216109 54
-9.3111248 2.9846425 2.667372 54.200001
-9.4942093 2.9474704 2.7148602 57
5.1425147 -0.087754369 2.4932153 55.333332
-9.5941238 2.9292066 2.7410064 53
-9.744957 2.9002666 2.7806113 54.799999
5.2045412 -0.38857609 2.527704 55
5.1832161 -0.27929074 2.5151269 54.142857
5.2109919 -0.42579436 2.5318878 53
6.2254119 -1.2017772 2.5288463 44
5.3307905 -0.97493559 2.6051669 52.599998
6.262404 -1.3641622 2.5504367 44
6.2351766 -1.2478039 2.5347457 44
5.3661809 -1.1444404 2.6293719 51.75
6.2813582 -1.4663239 2.563386 41
5.3951983 -1.2630863 2.6478024 49
5.5734472 -1.6673923 2.7330914 63
5.444212 -1.5819738 2.6924949 50
4.1487622 8.4162865 2.5611625 55
4.1713786 8.2608643 2.542309 55.200001
4.222476 7.9767752 2.5098674 56
4.2052803 8.0773201 2.5213432 55.75
4.2427926 7.8524933 2.495791 55.599998
4.5526633 5.8638401 2.619077 58
4.598805 5.6752172 2.6042528 58.5
4.5746651 5.7947698 2.6145275 58
4.6253505 5.5237131 2.5909863 58.666668
4.5920987 5.3829136 2.5676041 59
-9.9532986 2.86078 2.8356068 55.666668
6.0341172 -1.9306102 2.8737657 60.599998
4.1197424 8.6178455 2.9646542 56
3.6500354 8.7529564 2.9219182 59.333332
4.1492324 8.4697447 2.9437394 56
4.1261754 8.5733833 2.9579792 56
3.5055113 8.6859913 2.8903062 44
4.1823883 8.2758541 2.9160385 56
4.2047997 8.1271706 2.8946903 56.5
4.0207343 9.0423717 3.0244462 56
4.0671453 8.9364252 3.0123551 56
3.9282656 8.9766855 2.9999781 55
4.0984759 8.7267866 2.9803443 56
-9.0940704 2.3748598 0.070166782 73
-9.1715393 2.5098524 0.058317214 68.375
-9.1775417 2.6915855 0.047607392 62.166668
-3.2081919 -2.1320961 0.23974121 56
-3.3855665 -1.9746735 0.24565807 63.5
-3.2720304 -2.0257666 0.24711747 63.954544
-3.7781959 -1.7245064 0.24030456 99
-3.7263846 -1.7247598 0.24438363 86.666664
-3.3735681 -1.8500638 0.2583541 59
-3.3562851 -1.8660762 0.2579174 59.5
-3.8143892 -1.5874279 0.248097 90.25
-3.6209831 -1.6978867 0.25475156 61
-3.2201457 -1.5456269 0.20714252 58.722221
-3.0709109 -1.6177492 0.2104042 57.913044
-2.9333057 -1.5956712 0.2235547 59.25
-3.8232636 -1.4837666 0.25523803 99
-3.5663474 -1.3133626 0.19846725 62
-3.4571602 -1.3940061 0.20165521 59.482758
-3.3201823 -1.4842596 0.20533626 57
-1.4011981 -1.4854227 0.18643925 53.1875
-1.3509593 -1.4609014 0.18782416 53
-1.0544765 -1.3814901 0.17649709 53
-3.7718539 -1.196915 0.18535918 47.333332
-3.6608753 -1.2316668 0.19539952 53.913044
-3.150496 -1.1151116 0.18649879 52
-3.042172 -1.1870389 0.18923013 53.57143
-2.8614035 -1.2827964 0.19412693 54.080002
-1.4286733 -1.2395341 0.17251731 59.153847
-1.2005546 -1.1716137 0.16722743 59
-3.8017011 -0.98381865 0.19911757 50
-3.7253757 -1.0472169 0.20398824 49
-3.3566093 -0.92410576 0.18224297 52
-3.2506688 -1.0317246 0.18401299 51.972973
-3.0433784 -1.0148126 0.17965901 54.5
-2.8414161 -0.99206233 0.1730673 57.512196
-2.6870174 -1.056934 0.18075049 57.846153
-1.1512406 -1.1543968 0.16553831 59
-1.0831811 -1.128733 0.16266595 59.260868
-0.86176074 -1.0207441 0.15298645 60.676472
-0.59378994 -1.1453283 0.15530503 46
-3.7961936 -0.80413389 0.21277422 50
-3.6426916 -0.77464044 0.20429114 55.599998
-3.4575162 -0.81430769 0.17852992 52.444443
-3.1454773 -0.72479987 0.16778028 57.75
-3.0497022 -0.83057582 0.16844271 56.68182
-2.9395931 -0.91680539 0.17236067 57
-0.76818621 -0.94394624 0.15217413 59.125
-0.64369643 -0.85383093 0.14475746 59.97826
-3.8640518 -0.55659544 0.21759979 49
-3.6156313 -0.60578394 0.17140712 52.599998
-3.2400134 -0.6126554 0.16438368 58.533333
-0.5428493 -0.76559329 0.13920006 61
-0.4743154 -0.6866591 0.1360947 60.65625
-4.0254598 -0.37255555 0.20103854 87.14286
-3.7843752 -0.36863464 0.1723114 53.909092
-3.6966805 -0.45099026 0.16829526 53.133335
-3.3950405 -0.40421557 0.1553115 57.972973
-3.3297403 -0.50292993 0.15952446 58
-0.33305418 -0.50908226 0.1268153 59
-4.0194464 -0.20152414 0.20629534 87.741936
-3.8333693 -0.19782794 0.15506782 53.700001
-3.535172 -0.12949973 0.14396539 57
-3.4899642 -0.23017347 0.14825606 57.714287
-0.22176111 -0.32192612 0.1179807 62
-6.2819481 0.11973765 0.16869184 63
-4.158772 0.053132564 0.18654719 89.599998
-4.0556731 -0.00032424927 0.18269216 87.375
-3.8947144 -0.018989444 0.14780758 57.869564
-3.5790684 -0.0048391223 0.13866901 58
-6.3234406 0.30886191 0.15979202 63
-6.3016868 0.2136972 0.16446473 63
-5.2106528 0.2337947 0.13762186 74
-4.4644432 0.25812212 0.1343748 85.07692
-3.9908628 0.2762323 0.12895283 85.625
-3.8667736 0.12551689 0.15470493 58.333332
-3.6235342 0.17438385 0.13159508 70.631577
-6.3475823 0.44838995 0.15317328 63
-5.2384367 0.42895684 0.12868193 73.222221
-4.4965205 0.41112491 0.12526754 82.727272
-4.0291567 0.40255031 0.11841591 85.444443
-3.7169576 0.46675152 0.10549028 89
-3.7008915 0.3888627 0.11138502 90.862068
-0.017154336 0.33041862 0.085273355 76.333336
0.23319745 0.28504199 0.084387884 91.25
-6.3764849 0.65005076 0.14332525 63
-5.2416 0.631868 0.12090252 73.444443
-4.4990282 0.61139965 0.11746126 82.304344
-4.0357118 0.60266477 0.10955699 83.629631
-3.7148771 0.61037332 0.099445641 86.5
-3.7090783 0.55114019 0.1038902 86.571426
-0.020081162 0.51757491 0.080801412 58.055557
0.24556327 0.4823634 0.076292932 68.25
0.61917722 0.55869472 0.061432235 96.92308
-6.4052129 0.85423523 0.13231666 63
-5.2357149 0.82962984 0.11271658 74.294121
-4.4927154 0.81234407 0.10830775 82.727272
-4.0204506 0.80288666 0.10110431 79.037041
-3.7120957 0.71587491 0.093903109 83.25
-3.689028 0.80897176 0.092265993 78.428574
-0.027440548 0.71794891 0.071135074 59.702702
0.22418165 0.69802147 0.071223967 55
0.60787094 0.71761835 0.056135014 99
-6.4222808 1.0534191 0.12159985 62.75
-5.2262921 1.0283401 0.10317112 73.888885
-4.4656401 1.0121071 0.099796325 81.260872
-3.9623866 1.0030614 0.097024873 65
-3.6137648 0.99497801 0.092291966 62.235294
-0.045289159 0.91593671 0.058528483 74.147057
0.21446002 0.91979873 0.056944326 71.379311
0.59096706 0.81659865 0.054181196 99
-6.4374404 1.2481027 0.11029123 63
-5.1945267 1.2306592 0.094463788 73.944443
-4.3787656 1.211107 0.097996473 57.52
-4.1293187 1.3057389 0.12845829 65
-3.9051747 1.1333499 0.09594664 50.833332
-3.8801823 1.2185533 0.091625243 53.31818
-3.5413885 1.1942372 0.084656253 57.848484
-3.4953279 1.2910547 0.081309341 58
-0.13081264 1.1605884 0.052391373 59.363636
-0.064566493 1.0668309 0.046609074 84.157898
0.19246614 1.1149173 0.043195546 90.645164
0.48522317 1.1952469 0.047148459 57.333332
0.52283394 1.0741484 0.049977958 61.888889
-6.4390335 1.4518358 0.098781005 62.23077
-5.1489444 1.4192435 0.08666835 70.0625
-4.3088384 1.3100312 0.10022207 61
-4.1859264 1.3829899 0.11187134 58.333332
-3.9995136 1.4055154 0.13781109 73.045456
-3.8068914 1.3981259 0.083807901 52.299999
-3.4717765 1.3462332 0.077924594 57.333332
-0.20174372 1.3199883 0.04649882 59.799999
0.067838073 1.3338212 0.046673484 53.275864
0.1265471 1.2271243 0.04654941 71.333336
0.44866621 1.3090897 0.043327816 57.172413
-6.4466329 1.6523803 0.085927531 86.666664
-3.9461432 1.5898241 0.12481099 66.263161
-3.7567534 1.516692 0.077129677 53
-0.34000552 1.5520624 0.038478144 58.84375
-0.26888847 1.4505435 0.040927194 60.833332
-0.015804648 1.5181841 0.038962401 53.911766
0.38162506 1.4751353 0.038751937 56.842106
0.90952432 1.5543439 0.02358672 91
0.95017946 1.4915544 0.022195876 91.26667
-6.4251065 1.8326744 0.076102197 96.181816
-0.5370214 1.7798755 0.03282889 56.26923
-0.43871903 1.6775702 0.03493809 56.791668
-0.16253459 1.7425427 0.032753401 52.371429
-0.078628421 1.6366513 0.033764534 55
0.23556256 1.7352293 0.033973195 56.444443
-0.7619285 1.9822173 0.024990842 56.060608
-0.640113 1.8753012 0.030354045 56.608696
-0.33806014 1.9590485 0.025487311 50.884617
-0.2623117 1.8587857 0.031207725 51.25
0.099896431 1.9836867 0.021879777 56.777779
0.16529453 1.8812791 0.025846481 56.217392
-2.0822363 2.102313 0.089262694 61
-2.0632994 2.1152337 0.085963376 61
-1.6132565 2.232522 0.046550333 52.75
-1.1337194 2.2170806 0.012928188 55.954544
-0.97685671 2.137857 0.015734598 55.594593
-0.86105913 2.0598788 0.020635188 56.799999
-0.5703423 2.1751134 0.018534712 50.529411
-0.43319321 2.0711207 0.019043356 52.222221
-0.092626452 2.2032166 0.017735802 54.799999
0.00022614002 2.1007872 0.019846372 55.096775
-1.5499382 2.3345647 0.01233428 57.200001
-1.3764445 2.3068552 0.0094130188 58.588234
-1.2169392 2.2932515 0.018404096 58.049999
-0.7689895 2.3186145 0.013839751 51.837837
-0.67000544 2.2335043 0.020469308 51
-0.28748584 2.4101002 0.0094279945 54.5
-0.18377268 2.3159568 0.011508033 54.40625
0.44985425 2.3519728 0.004975915 55.549999
-10.379201 2.7544649 0.29170012 56.333332
-10.183889 2.790343 0.29432279 57
-10.054053 2.8121562 0.2961396 57
-2.3345442 2.5996749 0.016438313 52.75
-2.2595954 2.5582914 0.029589266 54
-1.5352013 2.6450713 9.3951821e-05 52.944443
-1.3687389 2.6183076 -0.002355963 53.482758
-1.2103833 2.5420589 0.0059063584 54.650002
-0.48909783 2.6045341 -0.0018096417 54.25
-0.38413191 2.4963932 0.0059979111 54.034481
0.23946857 2.5599298 0.0051055998 56.42857
0.38477004 2.411495 0.0062862486 56
-1.6648256 2.7704439 0.057406686 70
-1.5559883 2.7765772 0.04858356 66.400002
-1.3634731 2.8185163 0.032668173 65.269234
-1.2485955 2.792031 0.031643167 64.199997
-0.94352454 2.7080762 0.026022904 10
-0.6675216 2.7392077 -0.0086856037 57
-0.58567786 2.6865799 -0.0070680976 55.782608
-0.091674209 2.8069742 0.0087676197 58
0.051777482 2.7537224 -0.00026901066 58.049999
0.16507316 2.6573722 0.00029535592 55.666668
-0.11977947 2.9347894 -0.0092024207 56.8125
-0.028594613 2.8334303 -0.0031479299 56.25
-0.48705471 3.0374513 0.012174428 61.75
-0.35699964 3.0696852 -0.0065283477 57.722221
-0.20986509 3.0434284 -0.017485544 54.5
-3.9018435 -2.1295547 0.44016632 34.333332
-3.9687552 -1.9096403 0.44521546 35.666668
-3.9384999 -2.0090182 0.44303828 35.785713
-3.6616893 -2.0104158 0.37962559 68.720001
-3.4618356 -2.0077696 0.40041068 61.896553
-3.3092194 -1.9901693 0.38853315 62.0625
-1.2639366 -2.0266235 0.3482765 94.5
-0.98585206 -2.0135033 0.30177003 72.666664
-0.90810132 -2.0047445 0.2633943 68.210526
-3.9918818 -1.7835 0.40162107 38.758621
-3.8362231 -1.8193488 0.34232545 54.666668
-3.7556148 -1.8582871 0.34444487 67.25
-3.4220829 -1.7740252 0.2778365 65.099998
-1.2693081 -1.7574115 0.2067606 59
-0.70023561 -1.7823632 0.24099645 72.199997
0.17309415 -1.8070767 0.29253444 61
0.28644812 -1.790637 0.29020897 60.642857
-4.0063348 -1.6562726 0.4511143 30.5
-3.500113 -1.6961267 0.26385504 62.200001
-1.3973414 -1.593385 0.28053409 76.375
-1.2694277 -1.7339466 0.21044722 60
-0.71291935 -1.6727028 0.25434345 73
-0.0071876049 -1.6651452 0.17544565 57.764706
0.058492899 -1.6260643 0.18794377 58.833332
0.37989604 -1.7716143 0.28720364 60.549999
0.53981245 -1.7533491 0.27349326 59.266666
0.75125253 -1.7280984 0.23624063 55.257141
0.93452466 -1.6638918 0.26744998 57.5
1.0870007 -1.635361 0.27277493 58.25
-3.7694921 -1.3668941 0.26848111 10
-1.3736867 -1.5261041 0.27053663 63.714287
-1.3262653 -1.5155028 0.30134684 67.545456
-1.0706196 -1.3757666 0.17924729 53.076923
-0.75502902 -1.4736893 0.3206535 68.611115
-0.71480352 -1.3883789 0.3283658 70.454544
-0.41429424 -1.4054395 0.19906349 56.157894
0.14550507 -1.5008581 0.16930923 58.333332
-3.8135557 -1.1555549 0.27862376 27.200001
-1.1995766 -1.2493076 0.27364781 62.299999
-1.0578966 -1.3534944 0.18190195 53
-0.81173676 -1.259076 0.16887398 53.913044
-0.64386594 -1.3036468 0.27974144 71.5
-0.43622589 -1.3531886 0.21779296 62.888889
-0.25716925 -1.2718438 0.16145581 59.117645
0.30525315 -1.2768807 0.16356444 55.764706
1.1612514 -1.212783 0.15434065 50.5
-3.7851062 -1.0488199 0.31957045 52.333332
-3.6814518 -0.99314427 0.39243162 57.5
-1.3984683 -1.0291754 0.27438939 55.599998
-1.2052393 -1.0649868 0.29455048 62.541668
-1.0411135 -1.0349953 0.29714781 71.159088
-0.86592531 -1.0105395 0.27339879 68.947365
-0.61211288 -1.1089144 0.1637361 54.055557
-0.47683954 -1.0294234 0.15290865 55.296295
-0.15815604 -1.1640129 0.15801591 58.333332
-0.074510455 -1.0747207 0.16367261 56.21875
0.095872641 -1.0840263 0.25188577 56
0.42401779 -1.0982336 0.15715207 47
0.47525632 -1.0140431 0.15390292 56.833332
1.188259 -1.1354872 0.1527752 51.923077
-3.8363519 -0.79203868 0.3422066 29
-3.6667001 -0.76933455 0.23287764 62
-1.1399703 -0.78680038 0.24312694 62.5
-1.119307 -0.85049272 0.26008326 58.611111
-0.77557045 -0.94522059 0.1978834 56.714287
-0.37761784 -0.93017411 0.14868306 55.444443
-0.27104545 -0.82776177 0.15393665 52.285713
0.017329097 -0.8599956 0.23221296 58.333332
0.1225301 -0.83699501 0.22437447 57.243244
0.29667413 -0.83992171 0.28146255 47.5
0.4856869 -0.97025692 0.1546146 55.25
1.189916 -0.91782725 0.27110764 59.400002
-3.8075919 -0.65243459 0.35868245 37.599998
-3.7133002 -0.66117895 0.40118906 58
-2.1559834 -0.61428273 0.34760275 80.692307
-2.0431094 -0.59701848 0.3468897 78.679245
-1.8374368 -0.56003106 0.34648156 95.833336
-1.659602 -0.53977382 0.34817269 55
-0.42641485 -0.62097037 0.13454038 59.454544
-0.19440913 -0.69627416 0.13989891 53.3125
-0.10193658 -0.61981416 0.15739413 60.25
0.18156219 -0.69070828 0.16037902 55.303032
0.42747986 -0.61488545 0.22550339 64.666664
0.47763574 -0.66346717 0.19282126 54.75
1.1556159 -0.65852869 0.21205999 59.210526
-4.014616 -0.33725035 0.33400977 69
-3.8228807 -0.40865695 0.30720001 58.074074
-2.1979294 -0.3553322 0.37045401 71.666664
-2.0102439 -0.50968319 0.35278836 65.63636
-1.9223905 -0.50666785 0.35732257 68.75
-1.6401093 -0.50098085 0.35627237 79.235291
-0.36406302 -0.5394206 0.13065313 59
-0.29818106 -0.4375155 0.12616903 59.153847
-0.062301159 -0.4785037 0.13105749 53.027027
0.20554388 -0.51736975 0.1446113 55.555557
0.34175384 -0.45785886 0.19015497 66.555557
0.48109829 -0.57854927 0.26342368 62
0.78006971 -0.41211182 0.12476903 56
1.1160964 -0.52249724 0.2284189 60.629631
-4.1966305 -0.15938306 0.33397895 54.40625
-4.0428791 -0.23978406 0.31268603 61.666668
-0.21225429 -0.27736044 0.11902495 61.075001
0.031705022 -0.27957886 0.12262816 54.371429
0.37737048 -0.30254102 0.13234726 58.333332
0.62966597 -0.25939131 0.18721855 59.214287
0.74934208 -0.3263517 0.1504454 56.133335
-6.3246155 0.13083607 0.32731664 91.5
-6.3083715 0.094434619 0.32922906 92
-4.1578078 -0.006341666 0.31748053 74.517242
-4.0968413 0.049866647 0.32822031 93.8125
-0.14717221 -0.10470587 0.1135544 60.67857
-0.099228263 -0.019117564 0.11014826 59.666668
0.10111642 -0.081056118 0.11446012 53.8125
0.42973173 -0.094095051 0.14700322 60.5
0.57302558 -0.079448819 0.21421111 63.454544
0.75844204 -0.055265427 0.17097127 62.083332
-6.3474293 0.25546932 0.32247654 89.615387
-4.0724864 0.12347627 0.35226789 65.75
-3.7658672 0.16374603 0.25004017 57
-3.7023873 0.18021211 0.26028621 64
-3.2533529 0.27626717 0.27300179 97.052635
-0.081656814 0.11925414 0.10345121 60.081081
0.14820564 0.11485964 0.1065411 53.588234
0.46426404 0.08557266 0.1061265 55.761906
0.55720651 0.11600363 0.19497371 60.964287
0.78580916 0.12486541 0.15325679 57.900002
0.91876209 0.18011501 0.10023935 54.25
1.5679823 0.13839138 0.1305514 63.333332
2.6548285 0.10202888 0.092927463 49.857143
2.7032366 0.15473741 0.085916743 63
3.1616993 0.12397006 0.2052619 47
-6.3856459 0.45548725 0.31403375 86.928574
-3.2610695 0.29791921 0.28149146 85.375
-0.052880645 0.30880028 0.096034214 59.826088
0.19568741 0.3198874 0.093416736 59.344826
0.53394759 0.30537999 0.088293999 68.25
0.96291459 0.2975989 0.089506269 60.625
1.6604301 0.28102344 0.084022939 78.222221
2.6848059 0.29924232 0.083950311 46
2.7224059 0.25831968 0.080746725 63.53846
3.2302361 0.2951566 0.19451591 50
3.3758492 0.33015686 0.1815993 60.5
-6.4241619 0.65946764 0.30468854 85.384613
0.22292066 0.52129972 0.080498859 54.42857
0.5692445 0.45682579 0.076454148 61.857143
1.0538601 0.49669978 0.066538006 77.545456
1.6619676 0.39010584 0.080723017 84.5
1.7459444 0.48585209 0.064810924 76.3125
2.8515654 0.39277452 0.061648846 55.799999
2.9266515 0.4955022 0.049527168 61.666668
3.6540585 0.52622974 0.15261257 77.5
4.1988358 0.40595818 0.11236015 57.714287
-6.4657235 0.85950255 0.29456162 83.53846
0.21225059 0.72121763 0.072648518 52.846153
0.56957328 0.6672616 0.067518145 68.714287
1.0741686 0.69513154 0.054563463 96.227272
1.7826902 0.67827064 0.051994964 97.388885
2.9300685 0.66081828 0.043273106 77.384613
3.8675761 0.57329029 0.13368815 49
4.0104442 0.60241091 0.12109627 49
4.1608124 0.64327669 0.10748358 52.5
-6.5096197 1.1313367 0.32909358 69.714287
-6.4873242 1.0230842 0.28649575 82
-2.5454681 0.98144472 0.32753894 66.333336
-2.4817858 1.0018172 0.33644396 82
0.20031559 0.82558298 0.068528883 53
0.53419197 0.91632485 0.059853643 57.919998
1.0496436 0.89639175 0.048570998 87.260872
1.7727858 0.88160586 0.044452608 97.333336
2.9632692 0.85862136 0.031751186 81.615387
4.8676267 0.89497101 0.041190811 53
5.0103903 0.80721676 0.032775275 51.714287
-6.5404129 1.2661117 0.36175403 74.959999
-4.3502684 1.3074889 0.2347808 62.599998
-4.2483706 1.3095694 0.20580623 63.25
-2.6344721 1.0834608 0.29200947 48
0.49225104 1.1505412 0.049821198 59.111111
0.51603687 1.0530827 0.053179801 58.166668
0.99345362 1.0966635 0.046139009 60.47826
1.6827995 1.169012 0.042747721 51
1.7518228 1.0790789 0.037450194 95.470589
2.957592 1.056134 0.024035737 87.307693
4.8225646 1.0097796 0.040588707 56.888889
-6.5777593 1.4657586 0.34389299 74.95652
-4.125 1.3933353 0.24077475 62.357143
-4.0001173 1.4153296 0.27415878 71.760872
0.95968926 1.2970897 0.037176803 59.136364
1.6755301 1.2771313 0.037251174 52.944443
2.8988929 1.3077028 0.019116372 56
2.9423585 1.2486215 0.016940549 84.166664
4.8239222 1.2116473 0.032759979 65.900002
-6.6913242 1.7072464 0.42155069 99
-6.6117659 1.6243347 0.33861592 80.571426
-3.9628372 1.6096798 0.25807917 66.025002
0.095659494 1.502737 0.17985904 74.625
0.14535177 1.5356224 0.17951456 76.272728
0.41517341 1.5576127 0.14164095 60.285713
0.61234844 1.5917155 0.12682468 63.857143
0.86404955 1.5736102 0.029711284 59.57143
0.9522537 1.4093976 0.029176071 62
1.6416341 1.4778693 0.029084966 53.944443
2.2316585 1.4018452 0.090767495 63.333332
2.8756886 1.4268913 0.015794478 69.777779
2.9156795 1.3574742 0.01472754 82
3.6605768 1.446273 0.11702494 71
3.7342391 1.4967102 0.10895905 71
4.7594767 1.4172997 0.029765427 87.800003
-3.9761653 1.7409996 0.2657854 66.090912
-1.9388795 1.8277446 0.17447144 63
-1.7365416 1.8487315 0.16734543 65.333336
0.11004758 1.7798327 0.18023637 92.5
0.14628589 1.682446 0.16072983 86.769234
0.66787779 1.608111 0.060360298 55.5
0.82508695 1.6199272 0.062448077 55.57143
1.0188416 1.6838503 0.15654522 57.375
1.1872131 1.7190496 0.13275078 56.666668
1.63161 1.6839658 0.015632436 68.411766
2.1711302 1.7593912 0.07714016 61
2.902307 1.6839253 -0.0009790659 79.555557
4.730443 1.5407141 0.027032159 88
-2.1434989 1.9658229 0.12700289 65.516129
-1.9447913 1.9727607 0.17765738 57.347828
-1.8029 1.9480298 0.16493422 63.305084
0.093201995 1.8633541 0.16991055 93.347824
1.6006848 1.8129699 0.010091975 77.166664
2.1676507 1.778955 0.076333284 59
2.8742108 1.8437032 -0.0069282949 66.5
-2.3021727 2.2226017 0.11392314 59.799999
-2.0927165 2.112 0.12457795 60
-1.996484 2.0885434 0.16901577 54.400002
-1.710146 2.0975094 0.15250449 59.57143
-1.6566055 2.1801176 0.12882134 56.666668
2.8092189 2.0988827 -0.015142456 62.5
-2.2988722 2.2685795 0.10240623 56
-1.635555 2.2624953 0.10613997 56
-1.157836 2.3391902 0.14049676 66.657143
0.29322374 2.3925691 0.022213146 62.333332
0.49246252 2.3545337 0.13404557 62.157894
2.7046494 2.2980015 -0.016508907 65
2.7714229 2.2329659 -0.019574314 67.099998
-10.002437 2.82569 0.29662609 57
-2.3573933 2.6308789 0.13416725 70
-2.1920428 2.6504436 0.10518752 72.375
-1.2011824 2.5465531 0.16036172 63.971428
-0.82660538 2.4580951 0.23017551 49
0.26920247 2.4513643 0.017093182 60
0.4739188 2.5061121 0.14462568 62
3.4492822 2.5380542 0.081696942 60.5
3.7767873 2.5261481 0.056896046 63
-9.9034815 2.840661 0.29806787 57
-9.7591581 2.867204 0.29992539 57
-9.6070232 2.9048991 0.30138388 54
-2.1632814 2.6876743 0.11292674 77.041664
-1.9133179 2.7343524 0.16348642 77.824997
-1.7622665 2.7591631 0.1472269 71.646339
-1.564176 2.7940505 0.17241512 64.166664
-1.3757508 2.8293407 0.15650982 63.904762
-1.2377319 2.7321601 0.14650097 64.96154
-0.98446459 2.6428189 0.044051386 10
0.43562067 2.7092159 0.1267598 61.5
3.4601812 2.5903311 0.078090727 59
3.7245011 2.5762165 0.058366373 61
3.7746615 2.5652723 0.055038914 62.5
-1.2902608 2.8553176 0.18963286 70.888885
-0.53232288 3.0261607 0.018539511 62
0.39645016 2.9114778 0.10619324 60.935482
-0.50384784 3.0345368 0.097046688 61.222221
-0.34681439 3.0581248 0.14509951 60.392857
-0.15515065 3.0979893 0.1357498 60.03125
0.046332121 3.1351931 0.11420799 59.857143
0.2388593 3.1051145 0.10212316 75.487183
0.36461484 3.0434041 0.10147281 60.909092
-3.8711743 -2.1059074 0.6771912 37
-3.8728237 -1.9863145 0.6215803 35.9375
-3.6169038 -2.0148022 0.61293042 59.411766
-3.4566965 -1.9866633 0.56201088 57.692307
-3.2847185 -1.9566836 0.46121252 62
-3.9672751 -1.7708988 0.67206341 38.833332
-3.8975925 -1.8267727 0.60240638 36.736843
-3.4757025 -1.7224047 0.5148176 80.666664
0.18685865 -1.7871969 0.44672507 56.916668
0.093265891 -1.7586553 0.46119881 58
0.35042584 -1.7596738 0.44499496 56.176472
0.54281366 -1.721375 0.4574641 56.545456
0.75542033 -1.6650953 0.48328337 55.785713
-1.1824698 -1.4566149 0.44302571 68.571426
-3.8284459 -1.2248981 0.56322968 10
-3.7708297 -1.0357319 0.47426143 49
-3.6890099 -0.99852121 0.53615272 47.666668
-0.7047708 -0.96150088 0.39378569 81
-0.06440556 -0.97678161 0.47541001 59
0.12527776 -0.97692823 0.46233806 43
1.2196952 -1.193889 0.38400018 53
-3.7988119 -0.72833133 0.50526035 36.666668
-3.7013764 -0.81518173 0.56401658 49
-1.2758589 -0.7813201 0.52534312 87.18367
-0.9284178 -0.75329435 0.48079145 73
-0.82076496 -0.83185661 0.46340922 68.75
-0.69512272 -0.8917824 0.42350346 80.040001
0.022782087 -0.8402878 0.4693422 45.333332
0.3500675 -0.86826956 0.36002052 52.599998
1.17019 -0.86913621 0.42135778 57
-3.7849412 -0.56449425 0.54802185 46.384617
-3.7141361 -0.65738082 0.54276377 66.5
-2.1598942 -0.6182313 0.4519372 79.26667
-2.0306132 -0.58686388 0.47006688 82.407692
-1.8414248 -0.55705273 0.45762247 90.673332
-1.6624143 -0.57934237 0.37745011 45.200001
-1.1998048 -0.67914832 0.51349664 86.042252
-1.0321565 -0.70671809 0.51501918 80.38028
-0.87892658 -0.67397654 0.52942657 89.040001
0.21783841 -0.67918527 0.41148829 43.909092
0.33262789 -0.71553242 0.36373895 48.099998
0.49811256 -0.68718028 0.39472494 61.909092
-4.1267414 -0.28583032 0.46130475 50
-4.0096183 -0.3197847 0.50887513 57.826088
-3.7874498 -0.40542561 0.53589553 56
-2.1949091 -0.38830376 0.45751819 61.857143
-2.0029855 -0.4808858 0.47850752 62.216217
-1.8549821 -0.39504325 0.48143563 64.030304
-1.6251175 -0.45229584 0.43037096 67.635292
-1.5128502 -0.37301451 0.40835419 59.833332
0.26110244 -0.51625186 0.45025429 46
0.35366762 -0.42939699 0.40446433 74.190475
1.0606393 -0.42452449 0.38719076 57
1.102121 -0.51481688 0.38539442 57.07143
-4.1967087 -0.17890298 0.49809337 50.622223
-4.0515785 -0.26466143 0.51667207 54.799999
-2.0633247 -0.24167323 0.48949721 59.878262
-1.747902 -0.21295077 0.49001241 58.145832
-1.63626 -0.25981081 0.51578492 58.2994
-1.5114763 -0.30578458 0.4810001 61.125
0.38569105 -0.36064929 0.43891665 88.285713
0.66023529 -0.23265529 0.38647175 55.583332
0.68883169 -0.2659778 0.32575765 57
-6.3222589 0.13761213 0.57933044 92.444443
-6.311142 0.10081932 0.4907454 89
-4.1415019 -0.0018374026 0.50525749 74.074074
-4.0951457 0.051028877 0.49610984 96.1875
0.44760239 -0.1007148 0.39619523 70.714287
0.58327281 -0.065978289 0.37520456 61
0.72117126 -0.034724653 0.35801628 60.777779
-6.347537 0.26608914 0.56623477 91.115387
-4.0526509 0.12961027 0.5150485 63.333332
-3.2538381 0.28275716 0.47426605 94.115387
0.58398736 0.1017324 0.36984509 60.636364
0.7338351 0.16819453 0.36222249 60.333332
1.5578679 0.13671395 0.3732231 58.666668
2.8468189 0.1068126 0.39115933 69.888885
2.9631987 0.070917994 0.22288004 32.5
-6.3844914 0.46643761 0.55953944 89.571426
-3.25895 0.30477315 0.47306728 92.199997
2.8604107 0.20214626 0.32320514 58.599998
2.9153471 0.22197521 0.26264727 44.25
3.1076131 0.26881108 0.20528451 42
4.2699208 0.24794267 0.32107383 61
-6.4246769 0.6708445 0.55238086 88.46154
3.6709857 0.52963042 0.33946556 85.5
4.1848326 0.44837162 0.31845862 63
-6.4653344 0.87128806 0.54506218 87.42308
3.8540406 0.57649744 0.32946798 51
4.0002408 0.60569286 0.3217538 51
4.1479745 0.64643985 0.31358016 52.5
-6.508121 1.0900612 0.5538556 79.133331
-6.4854846 1.0001043 0.52826369 92.571426
-2.5171642 0.96866357 0.43544134 64.390244
-2.3845243 1.0038131 0.43396765 75.354935
-2.1849005 1.0422194 0.44778955 77.020546
-2.0562124 1.0680052 0.46329111 76.058823
4.960525 0.91499305 0.26704639 62
5.2422252 0.80728614 0.25772408 65
5.3155203 0.83680624 0.25334924 30.5
-6.5420876 1.2676971 0.61559159 84.083336
-4.354794 1.3129193 0.44222578 60.5
-4.0602355 1.3168101 0.49720803 66
-2.0994546 1.0782545 0.47173777 69
-1.9885969 1.085917 0.44799992 79.655174
5.010766 1.0468607 0.26020473 69.285713
-6.5840287 1.4685941 0.60881466 82.666664
-4.3804493 1.3378322 0.48943976 69
-4.1077318 1.4395165 0.43781838 59.857143
-3.9984374 1.419336 0.44946519 67.666664
2.1445065 1.3555263 0.30395913 81.777779
4.8289714 1.2479357 0.26158124 91.571426
4.9659376 1.154407 0.25854748 84.666664
-6.6104326 1.6298381 0.60320425 83
-3.9561558 1.6137022 0.43786842 68.780487
0.099441648 1.5022572 0.36153525 75.550003
0.14392519 1.5654025 0.34407824 81.809525
0.41919005 1.5662954 0.32780269 64.692307
0.58947122 1.5886347 0.30758214 60.214287
2.1072688 1.516679 0.29007921 66
2.1368284 1.4427962 0.33191067 68.73333
4.7605786 1.4205217 0.25863165 94.900002
-3.9706025 1.7539548 0.43494558 67.3125
-1.9662431 1.7667415 0.48431671 49.708332
-1.7663959 1.854075 0.47252807 47
0.11158788 1.7630221 0.33939904 91.484848
0.13245082 1.6633884 0.34365901 91.5
0.84931862 1.6473594 0.25456646 57.25
1.0197364 1.6857381 0.31449664 54
1.177328 1.7207198 0.33757132 54.666668
2.0965147 1.6707865 0.29369754 58.222221
2.1496048 1.7348689 0.36632928 54
4.6854987 1.6644694 0.25332811 96.25
4.7237134 1.5425981 0.25597116 96
-2.0872552 2.0243785 0.3514027 47.142857
-1.8099402 2.018043 0.40831739 52.466667
0.090292335 1.8710632 0.33196592 91.772728
2.083725 1.814991 0.29581136 67
-2.1840739 2.1552765 0.37116954 54.875
-1.9583017 2.099458 0.35051653 48.380951
-1.8624369 2.0881076 0.39757097 48.5
-1.1576984 2.3555164 0.33720773 66.5
-0.88295472 2.3614664 0.32217515 53.666668
0.49057186 2.335567 0.28539896 59.055557
-10.373166 2.770426 0.60469198 59.333332
-10.153186 2.813591 0.60048521 60
-10.002689 2.8428679 0.59760672 60
-2.3195629 2.6322339 0.33811054 73
-1.1978962 2.5411448 0.35104245 62.807693
0.46388853 2.5153482 0.30306631 58
3.7787619 2.5379899 0.26167154 74
-9.9084949 2.8591051 0.59587824 60
-9.7631464 2.8852003 0.59316456 60
-9.6102896 2.9225528 0.58992326 56.333332
-1.708127 2.7631211 0.31224835 63.214287
-1.5490147 2.7961004 0.34000781 64.574471
-1.3701099 2.8336148 0.33299991 61.069767
-1.235105 2.7397356 0.3381668 62.799999
0.42518961 2.7310803 0.32564676 58.360001
3.7700324 2.645694 0.25782695 67.5
-1.2774506 2.8633406 0.33223373 80.555557
-0.87206316 2.9355161 0.34732148 57
-0.74876791 2.9631629 0.33929333 56.950001
-0.53713417 3.0082154 0.29733849 57.639999
-0.42098165 3.0335071 0.31726918 56
0.39203775 2.9182749 0.3375507 58.161289
-0.45261467 3.0379639 0.21765855 59
-0.35029817 3.0494025 0.2823869 57.058823
-0.14104509 3.0912218 0.31047034 56.176472
0.05061841 3.1347926 0.33950242 56.607143
0.24456024 3.1051235 0.33200687 79.525002
0.36487925 3.047673 0.32290316 58
-3.9839134 -2.1439314 0.78299928 43.545456
-3.8926473 -2.1556268 0.77988774 45.666668
-4.0291963 -1.9722412 0.7769559 44.125
-3.597703 -2.0147064 0.77080107 68.428574
-3.4516454 -1.9870658 0.7473529 65.580643
-3.3289299 -1.9419861 0.74778193 70
-4.0528426 -1.8082712 0.77047879 45.444443
-3.4816484 -1.7234085 0.73766893 84.571426
0.19005466 -1.7992728 0.64978576 62.882355
0.30996239 -1.7816494 0.67206657 64.480003
0.3867439 -1.7583952 0.6176542 61.535713
0.4926883 -1.7428215 0.6508472 63.421051
0.77542317 -1.6923583 0.62857538 65.083336
0.88679206 -1.6603355 0.62545085 64.666664
-3.900353 -1.2206644 0.77001899 13
-3.7123952 -1.0996161 0.65375757 11
0.059906483 -1.1914532 0.55116659 47
-4.0287747 -0.92243469 0.7786063 10
-3.7688708 -0.97427714 0.68797606 33.5
-3.6931486 -0.97366726 0.69252247 59.142857
0.33628786 -1.0618744 0.69656348 55.333332
-4.1695085 -0.80011511 0.73186743 10
-4.0292573 -0.6951735 0.81283772 10
-3.7984085 -0.73220837 0.67942911 38
-3.6854024 -0.79758215 0.64646727 53.666668
-1.3287927 -0.78006959 0.59684801 55
-1.2569413 -0.764148 0.62838352 93.375
-0.21727788 -0.89605045 0.6145497 67
0.062137485 -0.78399813 0.67503113 66.333336
0.086019158 -0.7825495 0.59900212 69
-3.7871051 -0.65095949 0.71607125 44
-3.7034898 -0.63971269 0.64292377 60
-1.1826737 -0.68039346 0.66244727 82.935249
-1.033443 -0.68487561 0.65718019 82.656624
-0.87764186 -0.68192196 0.63679731 87.38298
0.011891246 -0.66884565 0.61532682 62.099998
0.081272721 -0.58459592 0.59066665 63.5
-4.1974387 -0.34112304 0.72802526 54.020832
-4.0863695 -0.37138999 0.64084619 54.666668
-3.7953811 -0.38795978 0.68747562 67.291664
-3.7050409 -0.45562154 0.63833398 59
-2.13359 -0.38237453 0.73790324 73.625
-1.9704437 -0.35547626 0.60442042 61.638657
-1.8916925 -0.35771626 0.61971438 63.666668
0.044879198 -0.51647109 0.6321305 81.518517
0.1749028 -0.43451774 0.6196872 81.346153
0.33425939 -0.39267105 0.56157053 85.800003
1.1145955 -0.46423405 0.57878542 63.837837
-4.2064085 -0.17510152 0.71956086 55.701492
-2.1400537 -0.22112042 0.67381316 62.372883
-2.0148604 -0.24448138 0.66874999 62.452282
-1.8049608 -0.2208305 0.65826088 61.882999
-1.6141376 -0.20043927 0.64677137 60.362343
-1.468464 -0.26262307 0.68110847 64.263885
0.38411295 -0.34192693 0.59339494 88.128204
0.68127096 -0.2627061 0.50151968 58
0.71471202 -0.2625581 0.49999878 55.5
1.0680221 -0.30655962 0.63414919 65.333336
1.0996796 -0.35280114 0.61964273 65.916664
-6.3192968 0.14312059 0.79470915 99
-6.2846942 0.086598337 0.79505509 99
-4.14924 0.011634022 0.70918065 87.255318
-4.0967445 0.044454843 0.67415708 96.5
-1.7333834 -0.10590672 0.71833819 58.116505
-1.6812036 -0.11686116 0.70105797 59.235294
0.45050824 -0.096659005 0.56900096 78
0.59274042 -0.050861657 0.57514191 65.872337
0.71885622 -0.032586664 0.49322158 61
-6.3503137 0.27521461 0.79165703 99
-4.0641837 0.13507593 0.69052142 85
-3.2595196 0.2908355 0.68089598 96.541664
0.48834193 0.079876721 0.63743132 69.599998
0.57435691 0.12851131 0.56961834 66.621216
0.7349323 0.19041336 0.48575038 61
2.622457 0.14816031 0.53335214 99
-6.3849936 0.47588444 0.78656751 99
-3.2653785 0.31292605 0.68056983 89.75
0.76118052 0.2284853 0.60938942 59.833332
2.6222219 0.26023817 0.52954608 93.416664
3.0489478 0.35468364 0.52160782 83
-6.4286928 0.68018574 0.78192514 99
3.1092687 0.36858973 0.52047133 82
3.6498723 0.53219593 0.50904167 81
3.7196131 0.5512448 0.5076409 96
4.2081704 0.4551295 0.50535131 73.25
-6.4886456 0.97438407 0.77536201 82
-6.4687161 0.87310207 0.77762276 98.5
4.0190678 0.61164743 0.50233269 58.333332
4.1592731 0.6536302 0.49940562 60
-6.5055704 1.0856302 0.7727012 95.818184
-6.4790206 0.98943818 0.77445078 99
-2.5172653 0.99122 0.62814677 70.32692
-2.3779254 1.0158954 0.62478793 72.386421
-2.1823788 1.0518327 0.62550771 73.719177
-2.0431089 1.0732803 0.65831149 64.988441
5.4412456 0.86029989 0.4784416 91.800003
-6.548656 1.2728944 0.76898038 90.666664
-4.3493695 1.3193626 0.58827007 63.5
-2.0943527 1.0829897 0.58545732 89.35714
-1.9865768 1.093502 0.61246061 74.8927
5.4372616 1.0216184 0.47335982 99
-6.5827403 1.4723806 0.76459885 89.666664
-4.3732285 1.3417358 0.71696657 63.75
-4.1093869 1.4462746 0.67132068 63.25
-4.0040169 1.4314921 0.6500057 73.69355
2.151794 1.259517 0.50317508 87.25
4.8244734 1.2701824 0.47248122 95.400002
5.4397063 1.1843956 0.46821749 81
-6.6184216 1.6436013 0.76122791 90.375
-4.843565 1.5551578 0.68307906 78.5
-3.9678411 1.6215537 0.6483174 70.583336
0.10536551 1.5115917 0.52479076 87.230766
0.15866733 1.566722 0.53195041 86.735291
0.424528 1.5799372 0.5214138 61.333332
0.61596239 1.6104498 0.5088653 73.888885
4.7728572 1.4232755 0.46838212 99
-3.9801345 1.7530204 0.62888932 68.578949
-2.1084385 1.8139592 0.57781881 66.710526
-1.9919635 1.8241217 0.59671891 73.55056
-1.8371001 1.7454174 0.62064672 57.714287
0.1169771 1.7629069 0.52689171 93.702126
0.13982689 1.6788146 0.51226866 96.90625
0.63753641 1.6229337 0.55691981 78.333336
0.85984433 1.6577438 0.51301068 64.5
1.0080975 1.6852061 0.51774764 63.92857
1.1336869 1.7178051 0.61070752 60
2.6132426 1.6811756 0.48565894 98.214287
4.7036572 1.5830649 0.46434218 99
4.7333932 1.5456042 0.46512744 99
-2.1305482 1.9021448 0.61424845 65.428574
-1.9761196 1.8904656 0.58287263 54.714287
-1.7603433 1.9223152 0.57035553 52
0.096850395 1.8789951 0.52053982 95.222221
2.6798353 1.8148416 0.48111761 99
4.6313367 1.9211462 0.45520067 99
4.6321845 1.9744028 0.45364845 99
-1.1469574 2.3712063 0.53030109 69.829269
0.51198494 2.3644896 0.48367602 63.689655
3.3747687 2.1933908 0.46234545 60
3.7115679 2.232604 0.45721415 80
3.7455201 2.2638168 0.45594761 68
-10.526904 2.7684364 0.90706605 67.5
-10.363431 2.8005583 0.89870864 68
-10.176273 2.8386164 0.88911694 68
-1.1864877 2.5579529 0.52924788 65.891891
0.49418175 2.5216115 0.50111151 63.653847
3.8277745 2.4806306 0.44905144 82.625
-10.048215 2.8609419 0.88266653 68
-9.9253492 2.8829563 0.87646836 68
-9.7739706 2.9085062 0.86888343 69
-1.5167372 2.8252718 0.53970641 67.96154
-1.3886235 2.8476462 0.5177415 64.794868
-1.2235804 2.7569015 0.5286448 66.366669
0.46303856 2.6971986 0.49756086 63.666668
3.7935152 2.6599617 0.44468272 78.63636
-1.3073384 2.8775136 0.54426384 71.416664
-1.2418784 2.8718576 0.56391644 92.25
-0.87476063 2.9526296 0.5173865 63.133335
-0.74779594 2.9919589 0.51398832 62.566666
-0.56981707 3.0242403 0.4897477 61.575001
-0.42822754 3.0337398 0.41810551 59
0.42600286 2.923996 0.48576385 65.0625
3.7609882 2.7687645 0.4422186 75
-0.48892796 3.0560956 0.55687559 63
-0.33954477 3.0775864 0.5109899 61.833332
-0.15335286 3.1140792 0.49672186 61.380951
0.053112626 3.1670687 0.48789856 63.785713
0.25396264 3.1383696 0.48468429 83.190475
0.3865279 3.0662696 0.48366749 74.14286
-3.9946427 -2.133611 0.99110377 39.099998
-3.926075 -2.165478 0.90286601 40.166668
-4.0379853 -1.9763603 0.95458066 39.580647
-3.6164212 -2.0196435 0.92458808 66.800003
-3.4685502 -1.9735875 0.9673177 68
-4.1411719 -1.6693199 0.99672151 42
-4.0830817 -1.7805827 0.94935209 40.580647
-3.4596739 -1.7055864 0.9888311 71.333336
0.18302262 -1.7909787 0.8491689 66.92308
0.29605997 -1.7726932 0.85053313 66.14286
-4.1058483 -1.6475344 0.95388466 37.333332
-3.4704316 -1.6689036 0.98578221 67
0.055772185 -1.7271967 0.93884879 56
0.1516999 -1.6438141 0.93307418 55.76923
0.39247596 -1.7573922 0.85195798 65.800003
0.54778755 -1.7296784 0.82361197 62.166668
0.76402366 -1.6919641 0.74339813 61
0.97013605 -1.64482 0.74265116 59.57143
1.0611264 -1.6584172 0.74468613 61
-4.190783 -1.3295251 0.9717291 39.099998
-3.9757333 -1.3419119 0.99592996 56.285713
-3.8597088 -1.3155439 0.98795211 81.8125
0.25120091 -1.5374969 0.9252153 55.333332
0.31032288 -1.4892946 0.92285645 54.777779
-4.2183142 -1.2106279 0.96457702 36.625
0.4836632 -1.1669941 0.89740705 58
0.047003031 -1.1496104 0.86688 59
0.15179825 -1.0509034 0.77764314 55.5
0.35753548 -1.0569156 0.78643495 57.333332
0.491696 -1.1346731 0.8945263 61
-4.3778901 -0.67710423 1.0452793 22
-0.71277934 -0.82832086 0.90717345 68
-0.12625873 -0.93448007 0.8708452 49.5
0.052004337 -0.83657885 0.7880069 60.57143
1.2184182 -0.86976731 0.81227726 63.400002
-4.3612051 -0.57505715 1.0347433 22.555555
-4.2869473 -0.46831 1.0157903 19
-4.0024133 -0.63643634 0.94393659 58.666668
-3.8716588 -0.51073229 0.87480527 54.714287
-1.1629207 -0.65555358 0.83866048 75.754715
-1.0236635 -0.66358423 0.85954666 80.024841
-0.8817935 -0.67271173 0.82989526 79.300003
-0.021564245 -0.6385498 0.8122924 63.296295
1.1814884 -0.67766988 0.79737657 63.882355
-4.2542558 -0.33146846 0.95207673 53.741936
-3.8265271 -0.41464889 0.8633343 58.727272
-2.1460428 -0.39340639 0.84945172 75.868851
-2.0970955 -0.40291965 0.86504346 73.285713
-0.1195209 -0.41806632 0.91093302 72.210526
0.0024549961 -0.47478026 0.81006843 64.75
0.12827909 -0.43341517 0.78541416 64.181816
1.0681998 -0.45801669 0.88016635 55.666668
1.1312231 -0.46091115 0.81304079 61.884617
-4.3030729 -0.070028245 0.99141598 53
-4.2697835 -0.16682678 0.94444489 54.755554
-2.1572993 -0.21375829 0.80522388 55.907215
-1.9664915 -0.21376806 0.78734303 52.325302
-1.851666 -0.20803362 0.78092802 51.541668
-1.591288 -0.18330741 0.76807326 51.26506
-1.4398943 -0.21614546 0.77499574 54.941666
0.19892192 -0.30151135 0.79327923 63.849998
0.44511831 -0.2019313 0.87020504 64.5
1.0873426 -0.30893958 0.83085591 62.799999
1.1071216 -0.35012341 0.81988841 62.454544
-6.314292 0.14248884 0.95678729 99
-6.2825899 0.093281955 0.9560436 99
-4.3105521 -0.053491771 0.99157304 53
-4.1721778 0.02804023 0.91980165 74.148148
-4.0909572 0.094492078 0.89295286 93.5
-1.767951 -0.12036878 0.75719827 54.333332
-1.6466929 -0.12408882 0.75436878 54.666668
0.44914067 -0.10357738 0.82804066 67
0.59059203 -0.049697399 0.77783054 64.464287
0.71106946 -0.043997735 0.73415494 66
-6.3423615 0.27496108 0.95430648 98.64286
-4.0710001 0.1438354 0.90234554 77.5
-3.2457156 0.29994345 0.87858897 87.1875
0.48337781 0.094541639 0.80377448 65.375
0.56896055 0.14939004 0.78796321 63.375
0.85430253 0.21976328 0.82036239 52
3.164495 0.12194377 0.69853085 77
3.3891649 0.12465972 0.70374602 49
-6.3821497 0.48295477 0.95043945 96.785713
-3.3002477 0.32856962 0.91075158 99
-3.2567513 0.31992686 0.86663008 84.400002
0.79644001 0.22941235 0.74917763 61.25
4.2773032 0.27942097 0.71931303 66.14286
4.3070683 0.1820201 0.72343224 66
-6.4216537 0.68718386 0.9471463 92.92308
3.6935797 0.5460344 0.69649684 79.5
4.2120194 0.42150986 0.71292549 66.875
-6.457521 0.88744164 0.94412816 88.846153
3.8897281 0.5939073 0.69962567 57
4.0469499 0.62610638 0.70234209 55.5
4.1966891 0.66933197 0.70454252 59
-6.5015216 1.1086159 0.94163144 88.111115
-6.4764705 1.0121157 0.94217372 96.666664
-2.5091448 0.99570906 0.80500358 56.047619
-2.3739548 1.0067499 0.77630258 60.099998
-2.1767738 1.0382798 0.75519633 56.409397
-2.0183573 1.067498 0.7425428 56.69014
-6.5390282 1.2795496 0.94033718 82.833336
-1.9305459 1.0880578 0.73704189 56.42857
2.152523 1.1775768 0.73361844 93.333336
-6.5807438 1.4805063 0.93897706 81.416664
-4.4016128 1.3612664 0.91898865 60
-4.1163783 1.4550004 0.88511962 62.263157
-4.0076394 1.4503565 0.8675102 68.967743
2.1449718 1.2289319 0.68663007 92.333336
4.8164673 1.2843863 0.70147771 89.166664
-6.6096368 1.6503469 0.93760329 84.5
-4.9267406 1.5899819 0.87808043 72.800003
-3.9787722 1.6285115 0.86736351 65.5
-2.0113664 1.6235919 0.84154463 56.75
0.10865676 1.5488839 0.73790991 64.5
0.20228064 1.5771781 0.73027122 61.870968
0.4378289 1.6010656 0.72593158 60.4375
0.6182462 1.6217071 0.72269338 64.5
4.7311764 1.538934 0.69301564 98
4.7693863 1.4375885 0.69642603 96.333336
-3.9942031 1.7575413 0.87132263 65.5
-2.0790138 1.8526256 0.81725448 44.5
-1.9552135 1.776499 0.81292135 63.90551
-1.8182112 1.771888 0.81388021 45.8125
0.093370676 1.7482911 0.71100557 70.634613
0.15464139 1.6580465 0.75648814 59.333332
0.64298856 1.6372329 0.74888742 69.5
0.84828818 1.6578711 0.77761 66.375
1.0345081 1.716175 0.71382719 60.599998
1.2117637 1.7537421 0.72298664 60.333332
2.87639 1.7192097 0.64711905 70
-2.0890272 1.9182936 0.77514845 45.5
-2.000701 1.8965994 0.74669939 68.333336
0.060398459 1.9122829 0.71825618 69.689651
2.9742866 1.818521 0.64738333 58
3.7752571 1.817853 0.66502917 70.5
4.0298004 1.7844969 0.67141634 74
4.1651773 1.8160632 0.67378336 72
-1.5287788 2.2206664 0.78976816 64.400002
-1.4148428 2.256793 0.79315561 63.692307
-0.059316158 2.2275982 0.76003104 66.75
0.028862357 2.1817975 0.75036055 60.214287
0.15579104 2.1539266 0.76872492 54.333332
-2.3250213 2.4524579 0.77814645 55
-1.3170824 2.3020089 0.79865104 66.529411
-1.1599054 2.3882711 0.74418014 67.14286
-0.48679745 2.4406736 0.7542339 65.375
-0.31743491 2.4297566 0.71300364 69.480003
-0.1509124 2.34163 0.72249603 70.6875
-0.039374352 2.2506194 0.67711717 68.800003
0.53905809 2.3925085 0.70098215 64.571426
3.793767 2.2723491 0.65701288 72
-2.3201523 2.5989335 0.74187785 64.78788
-2.2251647 2.5544312 0.78056473 55.5
-1.1649384 2.5509562 0.72396052 66.379311
-0.67077875 2.6480916 0.76430327 52
-0.5708555 2.5593841 0.76026458 55.370369
-0.3636874 2.4715786 0.71529907 69.125
0.51486266 2.526309 0.70349956 64.176468
3.5441046 2.5619776 0.64748889 70
3.6698642 2.512675 0.65072322 73.85714
3.7709727 2.4323182 0.6539861 70.599998
-1.5196562 2.7757337 0.7312429 61.724998
-1.3594959 2.7756789 0.74931657 58.388889
-1.2123525 2.7497582 0.72377682 63.263157
-0.91616642 2.7465322 0.76800054 53
-0.74786717 2.700712 0.76681662 52.200001
0.46666539 2.7303524 0.64324588 62.75
3.4421916 2.5970113 0.64500028 71.85714
3.6026325 2.5662987 0.64860505 70
-1.3071811 2.8822834 0.69350642 69.25
-1.2380265 2.8699803 0.69190001 84.5
-0.87273288 2.9642224 0.69436294 64.333336
-0.73739964 3.014349 0.69694549 63.950001
-0.60371459 3.0437605 0.69884437 64
0.42426431 2.9280977 0.59913707 61.133335
-0.50423443 3.06826 0.70067161 63.75
-0.33784056 3.1023445 0.70384973 63.176472
-0.13911796 3.1354368 0.69425911 63.3125
0.055860519 3.167927 0.60021609 60.5
0.25334799 3.1438792 0.60021079 79
0.38485563 3.0705266 0.59997511 64.25
-3.9841466 -2.1302001 1.149904 31.5
-3.9421043 -2.1933219 1.1532817 32
-4.043695 -1.9584515 1.1353319 32.117645
-3.8913822 -1.9256799 1.2353868 29.75
-3.6027367 -2.022037 1.0951252 64.285713
-3.4477584 -1.9685695 1.0721986 65.166664
-4.0306492 -1.7478652 1.1574676 32.583332
-3.9124327 -1.8054428 1.2203317 29.714285
-3.3534935 -1.6798377 1.1264231 60
0.053823352 -1.7718093 1.1531549 61
0.20516253 -1.7893696 1.0826497 53.636364
0.27635705 -1.7662926 1.0654759 54
-4.0193114 -1.6111026 1.1678584 32.555557
-3.3951344 -1.5805416 1.1686444 62.257141
-3.327786 -1.6117818 1.2091343 63
0.257002 -1.637969 1.0445769 63.25
0.32438815 -1.6356952 1.0496979 60.166668
-4.1991735 -1.3394283 1.0835066 32.5
-4.015491 -1.3130246 1.1545618 34.666668
-3.8629966 -1.3037077 1.1934011 73.111115
0.35872185 -1.5487239 1.0396643 60
0.62414968 -1.3803412 1.0400479 56.799999
-4.24055 -1.2348493 1.0779862 36
-4.0543466 -1.217337 1.1606483 28.181818
0.65536916 -1.3500066 1.0390315 58.5
0.70309627 -1.3198562 1.0397589 60.57143
0.052532077 -1.0562965 1.1119196 42.333332
0.096642733 -1.1214172 1.1304412 44
-0.73224461 -0.8077029 0.96031487 56
-0.17908633 -0.80663133 0.9595598 51.5
1.056554 -0.89392018 1.0275521 48
1.1405686 -0.87432289 1.0350869 47.900002
-4.2466431 -0.49160033 1.2135403 45.166668
-4.017324 -0.62627137 1.0866916 56.666668
-0.93189389 -0.67332351 0.9609915 74.5
-0.88348877 -0.66469646 0.96471912 71
-0.11653376 -0.55751276 0.99884641 57
-0.067077875 -0.61365688 0.98873591 61
1.0289985 -0.57336295 1.044646 48
1.1384624 -0.70909441 1.0186474 56.25
-4.2606525 -0.34187484 1.1588032 45.823528
-4.0914702 -0.36345369 1.0750375 48
-0.12325931 -0.43062967 1.0131047 67.041664
-0.077107549 -0.45725781 0.98696923 67.080002
1.0030941 -0.52107716 0.98540008 49
-4.2630043 -0.15758908 1.1372523 47.319149
-0.11960173 -0.34909606 0.96684736 68
0.48560274 -0.20108265 0.89579302 67.5
0.59894741 -0.27844149 0.91592419 61.375
1.0696558 -0.2292003 1.0722921 61
-6.3018184 0.14259043 1.118572 97.400002
-6.2755723 0.093151718 1.117496 98
-4.1722012 0.035420597 1.1063335 68.78125
-4.0719233 0.13329357 1.1237171 94.666664
0.57706606 -0.0053956211 0.95084852 57.5
1.0535501 -0.14441317 1.0484776 59.42857
-6.3346777 0.28212309 1.1170976 94.214287
-4.0712824 0.14865434 1.1227403 69.444443
-3.2453382 0.30724496 1.0157731 83.625
0.48927438 0.1252389 0.96791822 60.6875
0.55439866 0.13827178 1.0113274 58.382355
3.4776173 0.072810799 0.88946682 88
3.5519109 0.10978615 0.89235961 85.75
4.3248868 0.14710829 0.93622559 66
-6.3746781 0.48247147 1.1147498 91.384613
-3.2550149 0.32545471 1.0216672 83.85714
0.63019598 0.24741484 0.96958339 80.916664
3.9212961 0.34662718 0.90525848 71
4.3358793 0.165517 0.93617678 66
4.5909057 0.23581862 0.94854563 50
4.741725 0.21050036 0.95832402 46
-6.4139304 0.68659371 1.1129658 88
